ncols		139
nrows		76
xllcorner	328500
yllcorner	4732155
cellsize	200     
NODATA_value	-9999.0 
-9999.000 -9999.000 -9999.000 -9999.000 -9999.000 -9999.000 -9999.000 -9999.000 -9999.000 -9999.000 -9999.000 -9999.000 -9999.000 602.933 571.675 552.906 528.842 506.300 483.899 455.349 454.589 454.222 442.369 432.269 409.797 371.272 320.538 264.037 202.277 154.968 150.276 143.344 139.797 140.280 140.913 142.244 161.478 189.136 197.400 272.613 364.181 431.647 458.572 507.235 557.708 594.375 623.238 639.696 668.889 712.000 812.378 808.811 713.193 625.024 576.041 540.811 499.074 473.324 425.733 358.181 302.828 314.778 364.798 403.100 446.998 455.385 446.076 431.464 456.030 448.932 416.895 404.738 367.711 362.678 332.814 292.123 269.335 262.096 285.038 309.467 305.664 284.259 270.421 218.642 214.451 218.756 226.426 232.749 257.989 323.851 312.418 305.813 343.470 374.188 390.844 402.601 383.186 321.075 362.692 400.209 431.218 485.107 520.648 602.691 670.072 696.130 671.809 636.581 622.708 641.114 631.304 625.191 688.015 748.857 802.985 839.831 -9999.000 -9999.000 -9999.000 -9999.000 -9999.000 -9999.000 -9999.000 -9999.000 -9999.000 -9999.000 -9999.000 -9999.000 -9999.000 -9999.000 -9999.000 -9999.000 -9999.000 -9999.000 -9999.000 -9999.000 -9999.000 -9999.000 -9999.000
-9999.000 -9999.000 -9999.000 -9999.000 -9999.000 -9999.000 -9999.000 -9999.000 -9999.000 -9999.000 -9999.000 -9999.000 -9999.000 583.784 566.037 547.220 524.680 486.210 466.900 461.237 456.883 431.422 324.339 297.569 283.244 292.743 283.039 240.579 203.483 164.437 157.046 145.292 143.491 141.042 142.758 144.149 152.958 189.480 246.090 322.439 410.187 429.015 443.517 483.169 504.319 544.929 554.916 599.172 633.224 659.336 752.393 790.161 710.828 656.481 575.168 510.825 499.438 461.154 406.005 350.026 327.240 323.874 365.918 415.772 463.265 491.309 515.861 480.122 504.015 496.665 452.568 430.860 400.483 384.546 346.010 296.550 279.614 272.629 297.182 307.577 302.557 282.966 289.458 221.498 218.376 224.433 226.720 234.663 256.588 314.308 292.261 271.612 356.450 411.104 386.628 357.663 332.519 318.669 357.845 393.611 425.991 489.414 547.672 616.710 661.375 615.492 603.112 577.547 553.407 544.566 562.372 658.732 709.365 755.676 802.662 854.986 -9999.000 -9999.000 -9999.000 -9999.000 -9999.000 -9999.000 -9999.000 -9999.000 -9999.000 -9999.000 -9999.000 -9999.000 -9999.000 -9999.000 -9999.000 -9999.000 -9999.000 -9999.000 -9999.000 -9999.000 -9999.000 -9999.000 -9999.000
-9999.000 -9999.000 -9999.000 -9999.000 -9999.000 -9999.000 -9999.000 -9999.000 -9999.000 -9999.000 -9999.000 -9999.000 -9999.000 577.209 560.278 544.080 527.682 523.015 492.006 480.788 476.780 463.565 360.799 290.605 292.611 258.776 227.727 205.539 184.786 171.510 162.222 157.376 149.173 145.446 144.807 145.287 147.892 150.595 222.539 272.452 346.905 390.061 439.667 470.022 473.692 509.688 495.565 537.334 586.355 601.721 678.035 760.802 708.068 643.115 574.198 531.135 475.915 439.253 401.311 340.026 411.463 384.274 365.687 442.180 486.517 508.820 534.538 546.856 572.831 536.630 499.322 470.135 417.508 365.038 337.931 326.653 295.879 301.204 295.916 311.323 294.492 304.497 284.798 223.237 220.316 220.975 232.968 234.978 241.985 254.769 254.924 269.965 315.303 340.254 309.962 295.572 305.839 335.728 372.452 398.469 438.778 485.302 532.288 569.783 563.918 551.058 522.345 519.655 496.947 558.030 632.440 675.849 727.916 767.205 821.453 861.708 846.128 904.456 -9999.000 -9999.000 -9999.000 -9999.000 -9999.000 -9999.000 -9999.000 -9999.000 -9999.000 -9999.000 -9999.000 -9999.000 -9999.000 -9999.000 -9999.000 -9999.000 -9999.000 -9999.000 -9999.000 -9999.000 -9999.000
-9999.000 -9999.000 -9999.000 -9999.000 -9999.000 -9999.000 -9999.000 -9999.000 -9999.000 -9999.000 -9999.000 -9999.000 -9999.000 -9999.000 582.483 578.738 563.973 552.760 519.988 498.832 488.506 458.019 405.842 382.592 345.666 299.939 259.930 214.477 185.139 176.036 182.226 164.302 159.865 149.467 145.652 147.569 148.866 150.091 171.127 225.721 282.344 382.152 397.648 423.828 427.588 460.827 454.149 457.854 486.344 552.507 642.136 756.028 746.979 702.505 612.410 519.613 466.860 408.088 392.961 438.352 490.426 419.811 371.925 426.824 475.984 538.239 586.959 623.605 602.382 577.267 523.603 488.143 445.449 427.122 377.579 323.652 308.956 317.925 307.414 302.173 309.560 313.923 287.332 233.572 223.574 226.027 234.934 254.347 267.617 273.034 278.697 265.413 267.550 272.958 284.025 308.795 343.471 380.687 413.715 452.805 475.215 482.730 499.678 519.087 501.735 499.648 485.867 469.166 550.509 619.541 687.489 699.034 721.792 738.233 739.485 741.867 824.028 924.866 -9999.000 -9999.000 -9999.000 -9999.000 -9999.000 -9999.000 -9999.000 -9999.000 -9999.000 -9999.000 -9999.000 -9999.000 -9999.000 -9999.000 -9999.000 -9999.000 -9999.000 -9999.000 -9999.000 -9999.000 -9999.000
-9999.000 -9999.000 -9999.000 -9999.000 -9999.000 -9999.000 -9999.000 -9999.000 -9999.000 -9999.000 -9999.000 -9999.000 -9999.000 -9999.000 610.673 616.780 601.960 574.753 550.096 522.264 489.865 457.110 396.633 357.589 318.877 281.605 245.450 214.031 196.154 191.433 183.480 183.045 164.123 154.592 149.096 147.739 150.110 151.983 153.548 178.092 283.200 308.520 308.111 342.184 368.785 374.591 372.316 435.761 491.604 566.653 669.752 747.432 782.692 700.748 593.651 518.210 471.455 422.742 451.273 481.210 526.415 470.205 380.096 415.214 467.237 532.021 603.493 656.496 664.126 633.695 544.774 502.522 469.446 423.335 396.377 358.201 343.666 345.038 322.967 310.830 328.556 320.711 286.166 250.238 229.884 227.486 238.886 260.438 296.775 314.357 304.589 299.551 299.518 313.854 334.311 372.399 402.433 420.885 438.330 432.466 449.538 463.075 470.337 451.682 437.299 437.828 450.505 496.817 565.379 671.838 653.383 642.296 634.775 628.977 640.023 713.772 835.631 929.204 -9999.000 -9999.000 -9999.000 -9999.000 -9999.000 -9999.000 -9999.000 -9999.000 -9999.000 -9999.000 -9999.000 -9999.000 -9999.000 -9999.000 -9999.000 -9999.000 -9999.000 -9999.000 -9999.000 -9999.000 -9999.000
-9999.000 -9999.000 -9999.000 -9999.000 -9999.000 -9999.000 -9999.000 -9999.000 -9999.000 -9999.000 -9999.000 -9999.000 -9999.000 -9999.000 -9999.000 635.930 631.242 589.824 567.486 535.746 505.479 468.597 415.764 340.808 302.871 280.549 252.039 232.084 228.398 200.981 176.373 185.101 164.476 163.893 151.176 151.567 151.336 153.834 154.907 156.533 224.127 241.859 228.387 239.932 271.752 368.778 454.868 501.590 537.675 606.862 684.214 749.322 765.260 668.621 591.581 569.934 498.474 500.362 511.233 530.619 514.028 437.812 417.802 495.911 521.048 526.177 606.753 656.701 666.467 624.706 560.023 498.568 442.568 421.122 392.216 357.659 327.098 316.167 309.016 287.508 293.989 289.353 280.842 262.836 238.661 234.972 239.557 276.610 319.494 334.565 336.596 346.973 339.964 340.423 385.250 408.578 406.370 419.417 397.238 387.519 386.839 408.395 410.408 387.449 436.833 454.416 504.629 547.662 620.273 641.945 608.803 583.779 565.551 598.467 680.503 740.910 813.450 918.205 983.283 -9999.000 -9999.000 -9999.000 -9999.000 -9999.000 -9999.000 -9999.000 -9999.000 -9999.000 -9999.000 -9999.000 -9999.000 -9999.000 -9999.000 -9999.000 -9999.000 -9999.000 -9999.000 -9999.000 -9999.000
-9999.000 -9999.000 -9999.000 -9999.000 -9999.000 -9999.000 -9999.000 -9999.000 -9999.000 -9999.000 -9999.000 -9999.000 -9999.000 -9999.000 -9999.000 -9999.000 647.442 605.921 578.851 564.566 518.467 486.594 452.936 406.545 346.569 287.819 262.941 247.759 243.014 232.774 209.980 196.347 180.070 201.240 156.199 152.912 153.217 155.070 156.272 158.775 177.849 206.166 315.636 356.795 385.269 426.268 475.836 520.877 593.251 680.041 752.068 808.227 767.866 710.338 668.712 608.850 552.813 564.061 564.200 539.995 476.509 465.859 465.027 571.208 597.380 615.954 615.518 675.146 654.751 590.996 530.262 474.901 419.991 376.595 365.974 370.904 374.286 354.422 354.589 327.345 298.183 275.722 260.022 251.199 248.520 243.173 241.756 303.228 368.319 402.280 401.176 397.441 402.297 396.079 415.171 396.051 367.248 344.873 343.541 357.863 377.352 388.409 398.488 454.738 488.800 519.943 541.483 571.709 582.876 562.328 533.955 523.117 595.540 607.831 734.499 829.585 879.043 966.449 -9999.000 -9999.000 -9999.000 -9999.000 -9999.000 -9999.000 -9999.000 -9999.000 -9999.000 -9999.000 -9999.000 -9999.000 -9999.000 -9999.000 -9999.000 -9999.000 -9999.000 -9999.000 -9999.000 -9999.000 -9999.000
-9999.000 -9999.000 -9999.000 -9999.000 -9999.000 -9999.000 -9999.000 -9999.000 -9999.000 -9999.000 -9999.000 -9999.000 -9999.000 -9999.000 -9999.000 -9999.000 693.341 654.848 598.294 541.819 496.316 455.714 422.905 390.495 329.066 279.582 249.547 254.372 247.125 223.962 196.534 198.671 189.426 223.999 177.600 154.701 155.009 158.081 157.906 158.827 160.965 209.005 318.752 399.014 394.550 426.165 496.816 555.470 574.043 638.823 732.607 749.784 743.255 726.341 712.919 671.036 608.722 618.164 583.843 526.260 510.951 528.635 522.751 608.094 665.894 676.016 658.625 700.952 648.949 588.243 509.186 471.324 406.414 419.839 413.769 432.960 439.021 411.630 377.897 341.083 320.363 302.588 284.359 277.067 266.825 250.905 243.005 316.067 401.152 466.805 460.417 470.424 457.852 433.773 369.766 327.100 332.074 370.917 392.360 396.114 431.787 449.936 434.446 487.414 525.675 525.001 518.993 507.042 516.787 501.814 482.815 571.125 665.770 695.627 718.011 819.535 939.080 1011.519 -9999.000 -9999.000 -9999.000 -9999.000 -9999.000 -9999.000 -9999.000 -9999.000 -9999.000 -9999.000 -9999.000 -9999.000 -9999.000 -9999.000 -9999.000 -9999.000 -9999.000 -9999.000 -9999.000 -9999.000 -9999.000
-9999.000 -9999.000 -9999.000 -9999.000 -9999.000 -9999.000 -9999.000 -9999.000 -9999.000 -9999.000 -9999.000 -9999.000 -9999.000 -9999.000 -9999.000 -9999.000 -9999.000 652.133 576.522 517.232 477.438 432.508 397.059 353.169 301.333 279.714 298.170 315.087 300.697 277.763 252.300 218.346 190.474 216.026 216.410 165.926 157.068 157.958 158.570 160.636 162.398 171.829 260.949 326.945 383.504 451.213 477.463 511.133 552.807 577.825 650.003 655.779 671.753 639.192 663.822 718.251 703.074 658.812 585.763 590.474 576.710 596.238 596.283 657.324 713.362 721.119 708.702 715.660 673.445 591.438 518.290 468.675 474.340 512.371 473.268 510.785 479.971 457.393 412.633 374.175 354.440 321.484 299.937 278.933 261.925 256.554 247.584 287.262 345.196 447.323 457.260 446.803 434.660 392.832 326.626 384.681 404.756 408.884 420.969 432.880 461.000 475.432 465.536 460.802 471.890 449.045 447.614 440.442 450.927 501.516 562.225 551.698 587.287 649.313 746.675 852.056 985.939 1035.573 -9999.000 -9999.000 -9999.000 -9999.000 -9999.000 -9999.000 -9999.000 -9999.000 -9999.000 -9999.000 -9999.000 -9999.000 -9999.000 -9999.000 -9999.000 -9999.000 -9999.000 -9999.000 -9999.000 -9999.000 -9999.000
-9999.000 -9999.000 -9999.000 -9999.000 -9999.000 -9999.000 -9999.000 -9999.000 -9999.000 -9999.000 -9999.000 -9999.000 -9999.000 -9999.000 -9999.000 -9999.000 -9999.000 664.140 602.302 534.599 493.543 419.787 372.677 370.630 333.306 332.749 350.367 372.384 342.198 327.223 284.600 231.366 202.772 228.650 231.548 200.608 160.800 159.960 159.663 159.625 163.499 185.064 231.995 287.136 325.662 385.376 438.250 465.298 509.199 537.370 562.533 545.737 565.968 533.117 606.761 681.649 720.032 682.047 632.613 657.300 693.755 683.487 681.720 708.558 744.710 760.274 747.247 711.727 630.395 574.156 521.027 497.328 562.884 599.036 550.366 589.138 543.265 471.168 439.141 401.777 358.525 334.323 308.624 275.634 276.298 269.960 256.761 254.181 315.633 347.830 344.443 349.819 343.271 309.682 350.912 416.778 401.668 420.681 392.888 395.071 437.257 420.512 401.680 386.524 387.115 391.100 436.143 478.595 527.918 529.662 618.464 661.978 651.632 684.676 717.938 810.291 957.877 1000.163 1012.823 -9999.000 -9999.000 -9999.000 -9999.000 -9999.000 -9999.000 -9999.000 -9999.000 -9999.000 -9999.000 -9999.000 -9999.000 -9999.000 -9999.000 -9999.000 -9999.000 -9999.000 -9999.000 -9999.000 -9999.000
-9999.000 -9999.000 -9999.000 -9999.000 -9999.000 -9999.000 -9999.000 -9999.000 -9999.000 -9999.000 -9999.000 -9999.000 -9999.000 -9999.000 -9999.000 -9999.000 -9999.000 640.770 586.362 535.239 487.978 437.620 416.640 402.385 377.820 386.782 410.570 398.997 385.464 362.935 304.724 248.178 215.525 254.132 243.783 226.155 187.688 163.062 162.461 162.433 164.146 167.193 220.771 251.996 290.937 331.937 366.080 456.942 492.152 497.390 496.002 472.493 470.679 476.092 535.082 597.364 684.016 753.122 737.291 754.420 785.126 773.333 754.749 767.620 797.145 803.137 748.422 693.656 616.154 584.484 557.681 545.136 637.030 668.939 629.830 638.063 590.677 510.831 481.975 449.176 394.581 349.745 302.256 289.860 354.633 327.243 281.877 257.965 272.139 292.036 298.738 292.564 318.716 360.538 315.657 325.185 341.344 348.454 352.383 369.090 362.925 361.849 366.833 390.865 419.489 425.036 491.140 522.311 574.871 602.085 635.319 716.179 760.913 778.887 800.542 844.198 896.107 867.230 939.207 -9999.000 -9999.000 -9999.000 -9999.000 -9999.000 -9999.000 -9999.000 -9999.000 -9999.000 -9999.000 -9999.000 -9999.000 -9999.000 -9999.000 -9999.000 -9999.000 -9999.000 -9999.000 -9999.000 -9999.000
-9999.000 -9999.000 -9999.000 -9999.000 -9999.000 -9999.000 -9999.000 -9999.000 -9999.000 -9999.000 -9999.000 -9999.000 -9999.000 -9999.000 -9999.000 -9999.000 -9999.000 626.128 565.206 539.870 484.511 474.248 439.285 422.204 420.909 440.128 428.015 394.096 358.087 328.874 299.864 249.676 234.716 261.590 256.220 243.418 237.557 194.260 167.694 166.933 165.956 166.945 174.658 226.428 251.223 306.906 381.665 436.837 459.131 437.077 414.601 401.972 410.423 474.382 540.563 609.816 705.453 796.980 794.036 813.022 823.079 817.384 816.015 835.578 847.021 815.527 773.071 729.711 677.664 675.367 648.256 615.136 650.673 718.867 686.809 656.754 605.723 573.551 539.158 492.250 422.805 373.788 313.349 339.758 408.594 377.752 335.550 267.817 304.870 386.256 406.431 403.153 435.426 444.383 410.651 378.256 360.828 389.290 374.023 378.698 397.516 420.149 427.888 461.464 500.711 477.546 513.168 586.301 631.159 686.236 704.022 742.395 745.998 700.834 703.977 793.545 788.697 764.926 852.120 978.040 -9999.000 -9999.000 -9999.000 -9999.000 -9999.000 -9999.000 -9999.000 -9999.000 -9999.000 -9999.000 -9999.000 -9999.000 -9999.000 -9999.000 -9999.000 -9999.000 -9999.000 -9999.000 -9999.000
-9999.000 -9999.000 -9999.000 -9999.000 -9999.000 -9999.000 -9999.000 -9999.000 -9999.000 -9999.000 -9999.000 -9999.000 -9999.000 -9999.000 -9999.000 -9999.000 748.463 670.777 579.955 535.958 506.127 474.813 470.701 453.073 467.215 463.904 421.223 372.252 339.748 315.064 297.222 274.797 259.442 303.113 312.606 289.805 257.627 223.124 181.701 170.123 169.807 169.797 168.937 193.883 215.708 269.844 354.366 404.264 381.002 356.566 349.665 403.763 445.437 497.771 568.234 625.124 731.115 831.482 859.467 814.541 770.222 748.539 737.796 778.579 805.951 814.779 798.078 770.063 751.879 745.858 731.735 696.172 678.078 734.536 731.090 672.911 615.343 560.064 511.266 484.389 423.192 364.216 357.317 324.741 397.201 434.266 417.493 342.253 280.992 337.301 399.152 407.799 426.167 421.885 423.206 441.534 441.006 450.152 458.172 470.144 481.694 499.389 489.016 536.843 566.481 562.125 563.588 599.382 612.359 647.961 684.090 668.966 661.472 608.160 697.488 746.577 685.663 726.144 817.649 860.888 960.588 -9999.000 -9999.000 -9999.000 -9999.000 -9999.000 -9999.000 -9999.000 -9999.000 -9999.000 -9999.000 -9999.000 -9999.000 -9999.000 -9999.000 -9999.000 -9999.000 -9999.000 -9999.000
-9999.000 -9999.000 -9999.000 -9999.000 -9999.000 -9999.000 -9999.000 -9999.000 -9999.000 -9999.000 -9999.000 -9999.000 -9999.000 -9999.000 -9999.000 -9999.000 749.291 718.778 623.543 564.303 528.237 511.615 494.928 483.075 470.624 418.458 407.853 389.676 364.773 333.091 315.750 299.277 285.678 346.847 362.614 326.475 263.201 228.272 221.570 189.587 172.850 172.869 172.791 174.241 187.474 235.215 310.704 360.966 301.015 346.108 381.289 432.959 478.748 549.191 604.510 674.332 766.636 854.249 855.312 787.808 752.244 725.322 707.575 702.410 716.073 740.231 759.632 767.504 763.858 753.586 765.329 729.894 740.540 744.997 701.485 654.035 609.518 566.165 486.982 425.244 381.204 429.189 451.378 376.760 362.531 458.827 472.489 431.271 353.908 272.599 338.022 365.118 372.668 369.580 368.562 355.743 384.764 401.299 441.420 456.901 466.537 496.443 477.227 508.010 537.728 529.779 537.634 572.318 569.544 584.426 629.273 621.760 566.066 592.638 693.233 700.648 625.856 645.907 694.607 813.308 940.309 998.513 -9999.000 -9999.000 -9999.000 -9999.000 -9999.000 -9999.000 -9999.000 -9999.000 -9999.000 -9999.000 -9999.000 -9999.000 -9999.000 -9999.000 -9999.000 -9999.000 -9999.000
-9999.000 -9999.000 -9999.000 -9999.000 -9999.000 -9999.000 -9999.000 -9999.000 -9999.000 -9999.000 -9999.000 -9999.000 -9999.000 -9999.000 -9999.000 -9999.000 759.455 692.204 638.714 605.078 572.102 548.199 524.207 489.271 455.806 439.589 427.562 402.518 367.423 356.565 324.524 302.227 300.378 359.080 376.847 331.057 301.982 277.563 246.782 217.518 205.207 174.860 174.713 174.634 174.209 216.447 268.563 299.055 268.178 362.665 427.299 466.205 517.574 580.020 639.381 732.922 823.343 872.672 823.262 755.236 729.355 693.635 679.604 662.651 658.644 646.935 678.521 707.900 706.533 742.900 757.369 773.522 759.592 709.274 667.116 617.134 575.290 507.595 488.348 481.662 481.124 505.280 462.819 408.795 376.034 419.877 477.475 472.667 398.166 328.990 293.164 307.235 302.100 302.731 311.444 319.409 328.051 327.072 367.558 391.698 405.218 433.642 433.690 457.691 488.415 480.644 494.561 545.341 536.513 529.863 560.436 564.168 504.362 584.292 586.101 606.487 582.940 717.186 789.484 815.996 848.261 953.247 1053.560 -9999.000 -9999.000 -9999.000 -9999.000 -9999.000 -9999.000 -9999.000 -9999.000 -9999.000 -9999.000 -9999.000 -9999.000 -9999.000 -9999.000 -9999.000 -9999.000
-9999.000 -9999.000 -9999.000 -9999.000 -9999.000 -9999.000 -9999.000 -9999.000 -9999.000 -9999.000 -9999.000 -9999.000 -9999.000 -9999.000 -9999.000 -9999.000 775.834 694.142 655.426 636.637 613.945 563.106 500.829 502.075 471.860 452.300 439.392 415.051 388.503 353.242 347.990 356.765 364.212 362.730 390.979 358.961 339.249 318.271 274.512 255.071 229.950 201.629 185.915 176.027 176.855 199.595 212.940 218.954 289.754 400.080 454.788 510.680 534.878 586.999 658.440 748.354 826.330 810.248 781.459 733.119 711.367 670.416 653.398 621.474 619.209 605.667 612.454 641.435 655.818 686.901 705.355 753.107 758.148 662.782 605.801 557.075 548.630 532.381 590.577 585.431 531.322 495.259 459.344 402.526 430.039 429.779 478.057 503.736 441.882 405.078 334.947 349.893 349.724 319.738 354.095 370.784 369.958 377.769 345.469 338.135 342.423 348.719 371.852 391.379 411.093 416.857 432.271 455.375 464.030 489.895 465.988 446.227 450.906 466.494 500.822 514.560 591.043 641.014 666.431 672.906 814.847 958.400 1057.263 1106.709 -9999.000 -9999.000 -9999.000 -9999.000 -9999.000 -9999.000 -9999.000 -9999.000 -9999.000 -9999.000 -9999.000 -9999.000 -9999.000 -9999.000 -9999.000
-9999.000 -9999.000 -9999.000 -9999.000 -9999.000 -9999.000 -9999.000 -9999.000 -9999.000 -9999.000 -9999.000 -9999.000 -9999.000 -9999.000 -9999.000 -9999.000 746.454 712.709 696.812 666.080 615.888 532.198 527.080 521.828 478.913 448.830 437.020 427.549 399.126 414.333 427.977 456.629 407.728 410.673 428.802 401.908 376.986 333.044 310.214 282.504 267.450 232.870 198.394 179.310 179.090 203.519 246.676 291.726 344.150 391.022 455.431 485.086 524.090 558.978 651.289 747.432 782.084 760.992 739.288 714.082 700.350 681.810 649.471 576.636 584.318 572.068 592.331 593.903 622.020 632.279 685.310 753.476 772.356 682.685 643.135 619.375 621.830 610.341 633.086 579.412 519.239 487.067 448.375 433.901 468.477 477.088 492.439 532.039 477.813 447.614 373.210 388.119 412.626 347.634 409.778 414.428 379.898 446.491 432.652 412.200 404.611 400.734 375.111 380.317 382.231 406.498 408.511 409.344 414.111 429.165 457.254 493.751 483.938 510.011 547.566 612.414 603.516 595.140 660.544 763.457 827.437 897.243 990.078 1168.529 -9999.000 -9999.000 -9999.000 -9999.000 -9999.000 -9999.000 -9999.000 -9999.000 -9999.000 -9999.000 -9999.000 -9999.000 -9999.000 -9999.000 -9999.000
-9999.000 -9999.000 -9999.000 -9999.000 -9999.000 -9999.000 -9999.000 -9999.000 -9999.000 -9999.000 -9999.000 -9999.000 -9999.000 -9999.000 -9999.000 -9999.000 760.586 752.524 740.400 697.544 608.510 553.675 546.044 525.750 494.012 458.383 442.892 439.350 437.308 469.497 502.314 551.234 457.948 487.932 506.336 466.213 419.211 373.146 336.823 318.075 280.506 248.056 213.731 186.974 179.506 181.643 261.602 312.972 348.303 394.372 433.261 451.888 494.589 537.689 644.666 732.237 733.556 714.154 701.758 689.086 686.912 672.480 642.312 606.351 525.405 530.943 561.952 555.703 561.106 622.546 681.351 716.754 778.223 743.986 730.660 694.376 664.997 667.039 611.689 542.350 499.504 497.310 499.875 472.723 501.398 531.108 542.545 572.117 533.967 465.684 409.486 449.332 460.557 371.266 458.706 451.242 401.810 493.362 503.648 483.505 460.594 432.542 451.983 444.873 412.427 459.816 488.088 524.781 465.867 500.966 567.359 590.916 593.957 603.549 577.420 623.055 734.158 710.650 643.655 706.521 815.530 971.027 1038.817 1171.911 -9999.000 -9999.000 -9999.000 -9999.000 -9999.000 -9999.000 -9999.000 -9999.000 -9999.000 -9999.000 -9999.000 -9999.000 -9999.000 -9999.000 -9999.000
-9999.000 -9999.000 -9999.000 -9999.000 -9999.000 -9999.000 -9999.000 -9999.000 -9999.000 -9999.000 -9999.000 -9999.000 -9999.000 -9999.000 -9999.000 -9999.000 803.532 765.527 758.886 701.659 632.261 583.692 561.579 540.443 514.555 474.256 454.437 444.532 493.742 528.618 584.407 593.704 527.514 567.308 572.593 544.124 471.731 386.677 351.182 306.333 274.128 246.359 230.403 200.542 182.784 184.285 229.347 276.826 338.706 400.165 408.934 429.171 468.111 560.590 657.798 689.565 692.944 673.247 661.489 657.956 641.211 631.909 615.740 584.619 538.968 509.692 512.276 491.050 558.928 611.585 638.599 719.742 763.738 734.775 743.977 769.029 730.492 681.803 636.932 577.626 526.809 552.021 552.800 496.119 556.800 559.150 599.758 614.018 591.898 525.016 451.013 516.719 513.556 423.790 451.977 502.563 423.007 503.926 558.102 531.602 499.544 496.525 519.318 468.115 435.230 541.116 570.412 606.785 519.447 495.825 612.359 687.525 677.566 653.914 656.224 602.645 676.731 766.899 772.689 757.768 872.846 1016.421 1121.083 -9999.000 -9999.000 -9999.000 -9999.000 -9999.000 -9999.000 -9999.000 -9999.000 -9999.000 -9999.000 -9999.000 -9999.000 -9999.000 -9999.000 -9999.000 -9999.000
-9999.000 -9999.000 -9999.000 -9999.000 -9999.000 -9999.000 -9999.000 -9999.000 -9999.000 -9999.000 -9999.000 -9999.000 -9999.000 -9999.000 -9999.000 -9999.000 861.797 790.791 750.384 753.191 673.020 622.672 574.504 545.109 521.975 498.609 471.990 509.051 560.733 597.887 643.719 613.147 602.670 575.457 530.421 511.302 487.831 404.452 364.196 340.807 342.928 325.649 270.329 221.170 184.896 185.570 187.535 243.702 332.643 379.339 384.583 402.844 463.982 578.271 630.180 640.101 651.334 617.419 581.275 597.866 593.141 583.703 549.287 518.360 505.163 498.776 442.870 445.940 496.975 545.543 651.510 729.992 702.722 651.914 680.583 748.446 765.049 720.104 670.616 568.984 572.464 595.901 566.159 545.802 609.399 569.042 632.600 660.846 628.604 583.607 491.019 546.208 548.848 481.953 456.428 542.994 449.788 508.735 577.270 561.573 553.749 591.047 550.378 496.785 457.382 573.177 654.803 668.798 579.344 504.714 578.746 693.886 731.985 757.827 716.245 676.303 719.617 728.227 823.123 920.110 949.984 1017.711 1127.926 -9999.000 -9999.000 -9999.000 -9999.000 -9999.000 -9999.000 -9999.000 -9999.000 -9999.000 -9999.000 -9999.000 -9999.000 -9999.000 -9999.000 -9999.000 -9999.000
-9999.000 -9999.000 -9999.000 -9999.000 -9999.000 -9999.000 -9999.000 -9999.000 -9999.000 -9999.000 -9999.000 -9999.000 -9999.000 -9999.000 -9999.000 -9999.000 913.486 845.132 769.316 760.289 724.572 676.830 655.023 597.132 541.048 516.130 520.605 547.100 618.223 682.617 685.587 644.065 587.350 553.219 512.616 488.361 450.730 412.158 376.413 454.604 429.629 359.765 284.158 231.119 187.319 188.175 188.878 221.111 299.243 354.592 365.471 387.697 475.799 549.488 560.133 592.366 604.069 589.484 526.524 496.380 517.016 487.494 471.592 472.766 431.693 425.570 439.994 537.137 542.359 578.878 654.627 732.466 664.265 585.783 634.122 674.000 740.509 745.042 666.318 634.922 602.601 628.308 578.575 571.263 643.739 635.800 639.957 689.567 635.560 562.681 524.028 584.259 517.939 495.773 462.265 531.639 512.595 469.354 549.651 609.397 626.694 617.957 574.777 529.743 481.885 547.922 645.520 693.145 636.915 614.618 554.683 655.354 769.193 817.516 781.033 737.224 832.905 838.800 886.248 983.706 1078.556 1098.300 1135.923 1225.339 -9999.000 -9999.000 -9999.000 -9999.000 -9999.000 -9999.000 -9999.000 -9999.000 -9999.000 -9999.000 -9999.000 -9999.000 -9999.000 -9999.000 -9999.000
-9999.000 -9999.000 -9999.000 -9999.000 -9999.000 -9999.000 -9999.000 -9999.000 -9999.000 -9999.000 -9999.000 -9999.000 -9999.000 -9999.000 -9999.000 -9999.000 953.050 884.183 819.578 807.247 740.916 739.694 720.300 650.606 592.694 554.766 582.262 598.960 680.540 732.933 718.349 677.385 629.996 570.380 514.181 482.256 467.751 433.837 456.203 487.028 473.136 383.017 340.264 294.303 198.790 187.694 190.897 232.213 278.499 332.356 334.286 398.357 480.358 511.684 512.897 510.870 510.651 493.111 468.735 401.339 397.684 363.791 356.108 369.696 383.837 434.446 510.520 627.759 614.361 643.088 689.246 715.923 641.512 552.087 576.915 649.968 721.067 763.706 740.141 704.185 648.044 650.575 590.950 571.531 649.986 686.670 647.233 698.366 631.511 617.641 569.766 578.496 551.520 582.165 516.606 519.711 586.256 528.540 493.261 557.927 646.086 622.395 585.568 559.167 517.516 554.926 654.795 764.318 725.025 662.279 644.713 621.063 756.288 874.728 877.516 850.576 888.558 960.032 958.767 938.563 976.520 974.431 1063.249 1122.558 1210.323 -9999.000 -9999.000 -9999.000 -9999.000 -9999.000 -9999.000 -9999.000 -9999.000 -9999.000 -9999.000 -9999.000 -9999.000 -9999.000 -9999.000
-9999.000 -9999.000 -9999.000 -9999.000 -9999.000 -9999.000 -9999.000 -9999.000 -9999.000 -9999.000 -9999.000 -9999.000 -9999.000 -9999.000 -9999.000 -9999.000 -9999.000 936.017 891.844 910.915 833.972 761.866 712.584 684.879 629.420 590.491 644.661 698.702 753.000 774.856 746.457 709.716 664.665 607.907 549.932 495.748 477.200 482.611 486.915 526.424 528.498 461.466 384.544 305.130 255.519 194.527 191.889 225.874 267.374 297.656 361.012 427.184 438.485 451.263 463.492 467.278 474.288 467.768 427.638 377.186 309.252 282.554 357.443 380.635 397.582 483.493 589.491 662.128 685.702 673.748 641.586 645.451 611.873 518.949 559.345 604.590 674.109 729.490 777.294 729.243 714.588 667.980 647.934 623.401 654.904 724.978 715.739 735.212 703.179 652.183 633.419 579.675 628.624 647.478 580.046 503.911 606.985 571.726 600.049 575.329 625.110 676.541 642.068 632.018 555.585 615.167 684.491 781.531 763.278 753.855 737.779 707.949 740.871 852.731 933.600 918.370 949.395 898.696 856.155 861.866 856.882 884.380 1019.462 1038.023 1093.584 1202.667 -9999.000 -9999.000 -9999.000 -9999.000 -9999.000 -9999.000 -9999.000 -9999.000 -9999.000 -9999.000 -9999.000 -9999.000 -9999.000
-9999.000 -9999.000 -9999.000 -9999.000 -9999.000 -9999.000 -9999.000 -9999.000 -9999.000 -9999.000 -9999.000 -9999.000 -9999.000 -9999.000 -9999.000 -9999.000 -9999.000 -9999.000 957.598 982.448 917.361 838.779 744.401 696.220 666.493 638.636 715.701 781.176 818.666 813.919 768.529 733.892 693.147 641.142 587.351 545.643 512.364 495.635 510.827 539.433 519.861 539.068 466.959 382.580 281.989 239.118 194.364 198.080 247.646 271.239 363.732 387.784 392.671 399.279 412.958 438.159 443.198 421.711 338.447 309.045 271.500 316.723 445.529 518.494 524.980 574.499 601.688 633.981 654.144 647.639 561.878 584.460 599.414 491.869 543.151 571.541 600.599 657.174 749.795 800.195 781.235 749.996 717.483 691.732 701.273 733.446 762.535 770.687 731.060 707.024 699.964 666.477 700.739 660.744 574.136 551.277 595.474 658.001 691.697 659.049 672.914 730.681 734.198 704.816 637.681 611.211 705.806 830.065 858.491 855.778 840.848 800.244 827.803 887.314 895.267 856.291 877.549 825.130 779.896 740.376 732.821 789.002 884.569 999.871 1028.234 1106.218 1242.105 -9999.000 -9999.000 -9999.000 -9999.000 -9999.000 -9999.000 -9999.000 -9999.000 -9999.000 -9999.000 -9999.000 -9999.000
-9999.000 -9999.000 -9999.000 -9999.000 -9999.000 -9999.000 -9999.000 -9999.000 -9999.000 -9999.000 -9999.000 -9999.000 -9999.000 -9999.000 -9999.000 -9999.000 -9999.000 -9999.000 -9999.000 -9999.000 942.419 861.541 817.775 767.668 733.609 743.560 775.462 853.045 878.004 842.148 800.376 767.113 729.560 675.424 624.234 587.396 558.998 542.969 536.103 507.530 484.510 486.839 474.648 436.033 373.793 303.543 218.697 198.753 200.404 283.737 342.468 339.987 351.178 362.375 372.341 389.482 392.106 351.204 292.044 255.595 239.326 295.612 411.439 470.506 474.212 480.597 519.181 553.985 610.686 609.205 519.094 514.991 533.860 477.659 485.774 537.486 603.164 682.558 752.242 787.105 774.544 776.710 773.142 763.578 761.370 719.319 725.122 755.971 695.107 637.857 678.330 716.179 734.576 690.855 610.534 621.285 648.114 707.156 750.228 746.334 738.257 722.769 695.365 704.584 713.018 705.154 758.911 799.182 770.725 793.933 809.173 874.924 860.582 863.036 793.277 757.893 786.211 770.976 718.967 659.210 717.723 830.804 915.035 1010.686 961.869 1039.243 1128.697 1224.435 -9999.000 -9999.000 -9999.000 -9999.000 -9999.000 -9999.000 -9999.000 -9999.000 -9999.000 -9999.000 -9999.000
-9999.000 -9999.000 -9999.000 -9999.000 -9999.000 -9999.000 -9999.000 -9999.000 -9999.000 -9999.000 -9999.000 -9999.000 -9999.000 -9999.000 -9999.000 -9999.000 -9999.000 -9999.000 -9999.000 -9999.000 955.934 882.654 855.542 859.982 832.236 838.843 851.856 907.636 916.774 881.978 832.951 791.600 751.913 709.723 669.186 633.046 599.660 586.885 536.713 496.824 444.007 420.393 413.107 380.552 349.806 321.891 288.110 205.067 199.323 235.279 294.368 295.432 310.890 333.586 316.055 312.248 356.831 333.533 241.021 225.926 229.717 268.479 354.785 343.177 393.599 411.788 440.251 491.411 535.365 536.496 477.146 419.444 419.656 438.223 510.147 572.553 626.105 679.449 704.752 697.277 675.582 717.711 752.736 726.023 742.810 687.295 651.800 695.424 683.685 606.863 583.105 621.888 688.713 723.716 699.689 701.663 729.928 730.263 706.163 726.569 687.706 620.587 597.554 657.828 733.887 771.640 748.212 704.883 684.424 666.365 754.581 820.200 759.397 763.918 752.821 652.890 678.333 630.601 608.276 613.884 758.638 905.774 908.550 898.401 888.154 945.053 1037.174 1100.553 1177.640 -9999.000 -9999.000 -9999.000 -9999.000 -9999.000 -9999.000 -9999.000 -9999.000 -9999.000 -9999.000
-9999.000 -9999.000 -9999.000 -9999.000 -9999.000 -9999.000 -9999.000 -9999.000 -9999.000 -9999.000 -9999.000 -9999.000 -9999.000 -9999.000 -9999.000 -9999.000 -9999.000 -9999.000 -9999.000 -9999.000 -9999.000 932.490 924.277 938.069 924.602 933.152 945.085 959.664 944.681 912.156 863.581 815.111 786.138 746.299 704.361 665.588 634.832 602.797 546.161 495.691 429.810 385.013 365.041 334.978 301.892 283.442 243.920 219.387 202.773 201.413 223.333 252.420 274.092 264.438 231.617 252.499 275.919 243.009 226.952 311.081 263.515 233.957 236.830 241.897 299.772 376.549 387.206 398.335 420.699 447.624 382.629 329.613 373.211 419.281 448.162 508.168 558.368 573.500 637.274 594.498 583.742 676.186 701.805 651.026 677.784 696.314 597.868 595.507 619.341 584.810 527.216 558.755 624.366 690.240 684.146 668.537 697.748 703.757 645.166 660.283 635.998 574.266 540.371 646.213 662.375 664.135 703.623 621.726 588.364 629.049 745.595 734.731 685.128 659.180 700.936 642.969 600.804 545.861 620.112 709.409 810.542 836.148 767.516 793.575 879.181 946.338 989.440 1019.716 1115.837 -9999.000 -9999.000 -9999.000 -9999.000 -9999.000 -9999.000 -9999.000 -9999.000 -9999.000 -9999.000
-9999.000 -9999.000 -9999.000 -9999.000 -9999.000 -9999.000 -9999.000 -9999.000 -9999.000 -9999.000 -9999.000 -9999.000 -9999.000 -9999.000 -9999.000 -9999.000 -9999.000 -9999.000 -9999.000 -9999.000 -9999.000 -9999.000 -9999.000 970.755 990.037 1006.803 1011.381 983.956 925.831 883.900 861.626 837.619 823.727 770.241 719.614 676.025 614.422 566.739 516.008 440.910 370.805 365.360 311.993 287.542 280.779 265.085 291.478 292.340 229.507 203.047 204.132 206.138 206.043 207.768 209.916 213.515 215.194 235.008 317.688 418.394 348.223 317.117 309.415 238.425 263.245 312.897 284.906 266.335 316.457 358.460 270.111 271.889 278.433 265.967 304.173 433.083 476.172 486.096 586.328 550.083 547.665 635.085 650.434 605.508 610.725 675.541 620.314 528.280 524.655 539.148 494.676 562.282 637.680 619.583 606.456 603.518 625.904 680.989 608.826 554.014 559.578 523.593 502.491 611.916 549.268 630.220 658.672 599.291 533.162 607.300 667.394 657.200 629.776 543.413 615.616 573.343 525.085 576.870 650.466 698.409 686.945 701.008 674.219 723.294 772.893 855.161 972.940 1021.344 1086.433 -9999.000 -9999.000 -9999.000 -9999.000 -9999.000 -9999.000 -9999.000 -9999.000 -9999.000 -9999.000
-9999.000 -9999.000 -9999.000 -9999.000 -9999.000 -9999.000 -9999.000 -9999.000 -9999.000 -9999.000 -9999.000 -9999.000 -9999.000 -9999.000 -9999.000 -9999.000 -9999.000 -9999.000 -9999.000 -9999.000 -9999.000 -9999.000 -9999.000 -9999.000 -9999.000 1049.297 1023.370 954.954 885.487 811.340 796.675 786.503 776.938 742.029 657.626 613.433 574.753 531.720 451.194 373.077 412.238 378.701 367.233 353.667 332.733 331.495 318.314 294.816 275.631 216.422 241.255 232.229 241.531 273.148 303.368 347.377 305.829 287.697 393.759 455.665 432.295 419.508 402.502 280.639 241.689 243.698 250.714 259.846 255.711 255.664 286.542 311.107 306.795 307.823 270.713 350.083 374.387 478.465 541.374 475.487 531.609 600.789 623.408 549.767 571.530 621.401 610.899 572.828 502.124 465.339 462.609 558.922 579.157 560.544 543.664 555.420 559.117 635.757 630.065 574.651 515.556 479.121 491.698 526.931 510.282 586.284 585.171 530.530 495.583 571.930 581.776 538.275 529.890 498.798 504.411 493.637 555.458 571.061 551.955 577.822 596.569 636.118 662.582 782.392 870.676 968.723 1018.408 1077.828 1147.401 -9999.000 -9999.000 -9999.000 -9999.000 -9999.000 -9999.000 -9999.000 -9999.000 -9999.000 -9999.000
-9999.000 -9999.000 -9999.000 -9999.000 -9999.000 -9999.000 -9999.000 -9999.000 -9999.000 -9999.000 -9999.000 -9999.000 -9999.000 -9999.000 -9999.000 -9999.000 -9999.000 -9999.000 -9999.000 -9999.000 -9999.000 -9999.000 -9999.000 -9999.000 -9999.000 -9999.000 1013.832 934.434 867.879 792.875 779.190 767.829 754.619 713.915 631.799 591.227 548.570 446.540 419.890 453.944 457.621 439.740 413.840 387.439 370.265 335.879 309.817 288.146 245.043 209.361 283.439 355.333 353.629 355.351 384.175 433.620 417.694 317.716 427.544 526.644 551.508 512.178 474.784 380.019 290.459 312.320 354.008 395.801 280.046 272.059 330.705 424.803 456.692 378.358 279.163 273.523 298.464 396.348 461.094 408.159 501.157 560.558 596.166 509.517 530.552 572.843 546.363 530.828 502.625 410.644 499.673 555.516 551.867 525.127 508.266 485.227 530.250 570.495 564.556 553.607 527.558 483.634 445.314 437.654 461.591 460.337 502.883 485.746 470.685 478.792 459.852 448.410 458.953 494.492 547.347 562.478 565.243 693.762 652.438 624.007 689.826 739.685 719.172 714.692 852.997 1001.579 1075.522 1119.557 1227.626 -9999.000 -9999.000 -9999.000 -9999.000 -9999.000 -9999.000 -9999.000 -9999.000 -9999.000 -9999.000
-9999.000 -9999.000 -9999.000 -9999.000 -9999.000 -9999.000 -9999.000 -9999.000 -9999.000 -9999.000 -9999.000 -9999.000 -9999.000 -9999.000 -9999.000 -9999.000 -9999.000 -9999.000 -9999.000 -9999.000 -9999.000 -9999.000 -9999.000 -9999.000 -9999.000 -9999.000 991.052 934.924 866.470 789.465 762.021 740.982 726.651 694.782 612.036 568.660 488.518 461.066 527.758 555.220 529.599 480.245 451.412 435.081 399.146 345.980 308.434 278.390 216.856 231.638 291.873 357.875 437.500 429.503 473.393 498.146 504.521 412.239 459.240 562.667 613.197 576.360 480.017 371.778 274.517 346.326 456.243 460.081 363.793 314.657 356.484 441.791 520.948 460.049 393.155 333.375 282.446 304.849 366.644 354.357 443.722 498.903 530.397 490.501 474.974 510.343 493.299 468.425 449.007 396.904 446.939 481.152 501.455 494.655 466.548 456.562 471.857 527.336 521.686 515.232 474.179 450.062 416.660 396.622 393.853 399.523 411.465 417.383 432.416 454.945 484.544 507.896 557.962 581.915 665.477 718.794 636.195 626.383 733.364 718.257 717.718 848.920 840.422 797.319 825.695 921.536 1051.549 1126.135 1216.066 -9999.000 -9999.000 -9999.000 -9999.000 -9999.000 -9999.000 -9999.000 -9999.000 -9999.000 -9999.000
-9999.000 -9999.000 -9999.000 -9999.000 -9999.000 -9999.000 -9999.000 -9999.000 -9999.000 -9999.000 -9999.000 -9999.000 -9999.000 -9999.000 -9999.000 -9999.000 -9999.000 -9999.000 -9999.000 -9999.000 -9999.000 -9999.000 -9999.000 -9999.000 -9999.000 -9999.000 1001.725 951.957 895.735 830.012 763.457 736.929 663.391 574.202 533.452 533.951 548.021 589.446 614.774 594.622 560.975 510.359 476.670 446.252 406.917 374.784 323.274 279.206 236.514 235.097 290.407 361.332 444.617 528.517 575.096 559.086 560.061 489.009 542.449 590.651 613.379 545.995 448.095 344.351 321.858 390.544 490.682 531.565 422.420 392.355 431.399 483.408 552.426 510.832 399.535 287.032 334.494 337.770 287.448 329.131 350.251 419.941 425.767 448.914 420.380 467.665 442.454 413.406 405.779 381.988 395.430 407.320 424.223 451.278 444.509 414.607 407.942 406.344 423.070 427.045 418.016 385.991 378.730 382.315 390.455 412.305 406.009 411.404 502.881 570.737 619.184 622.864 614.502 648.686 750.340 802.606 741.647 720.750 693.255 830.471 827.685 885.257 922.422 888.537 914.828 972.195 1012.787 1071.704 1204.353 -9999.000 -9999.000 -9999.000 -9999.000 -9999.000 -9999.000 -9999.000 -9999.000 -9999.000 -9999.000
-9999.000 -9999.000 -9999.000 -9999.000 -9999.000 -9999.000 -9999.000 -9999.000 -9999.000 -9999.000 -9999.000 -9999.000 -9999.000 -9999.000 -9999.000 -9999.000 -9999.000 -9999.000 -9999.000 -9999.000 -9999.000 -9999.000 -9999.000 -9999.000 -9999.000 1012.373 985.056 945.583 895.683 812.050 765.806 737.201 713.505 701.625 667.704 658.601 671.737 657.876 635.779 615.624 576.275 534.084 496.199 462.608 429.265 379.220 339.403 290.515 268.223 221.665 272.982 389.422 459.030 508.360 573.062 621.655 604.340 558.127 598.210 630.308 573.758 469.426 377.056 298.910 379.302 479.526 536.942 542.751 446.285 490.683 507.095 556.384 531.550 441.955 322.400 339.956 409.737 414.325 371.104 289.661 296.199 350.292 327.861 348.561 397.315 410.252 386.573 370.950 367.059 355.327 369.459 372.907 376.915 381.615 364.490 347.345 353.712 355.368 359.630 364.094 369.507 376.978 407.727 472.119 504.492 507.917 506.881 413.904 438.275 514.480 598.767 680.653 717.936 769.325 814.926 871.502 835.568 796.244 744.111 819.164 918.789 986.806 992.674 979.482 1011.383 1098.234 1129.114 1145.585 1258.292 -9999.000 -9999.000 -9999.000 -9999.000 -9999.000 -9999.000 -9999.000 -9999.000 -9999.000 -9999.000
-9999.000 -9999.000 -9999.000 -9999.000 -9999.000 -9999.000 -9999.000 -9999.000 -9999.000 -9999.000 -9999.000 -9999.000 -9999.000 -9999.000 -9999.000 -9999.000 -9999.000 -9999.000 -9999.000 -9999.000 -9999.000 -9999.000 -9999.000 -9999.000 -9999.000 1013.376 974.737 927.404 872.279 863.411 798.920 768.557 776.377 800.017 794.718 770.424 720.613 683.816 648.689 613.128 577.942 541.852 512.581 480.938 441.503 388.410 351.198 314.140 296.315 264.613 240.340 302.796 359.256 446.265 533.450 614.363 650.851 627.713 616.940 585.729 554.780 510.761 381.774 330.613 468.250 532.299 613.975 548.259 526.247 580.789 575.154 561.289 470.056 350.729 313.385 385.079 449.063 488.155 401.566 297.397 321.387 294.568 300.626 301.687 339.394 308.527 321.290 321.112 317.123 319.996 323.937 328.152 331.981 335.397 341.842 354.802 359.958 395.592 439.259 441.676 412.155 463.685 498.931 475.682 591.281 592.449 576.357 509.159 426.962 431.181 522.070 582.951 679.637 707.858 743.084 864.298 895.799 897.895 841.765 887.492 983.026 1069.970 1100.969 1114.936 1138.427 1146.366 1167.804 1171.973 1258.971 -9999.000 -9999.000 -9999.000 -9999.000 -9999.000 -9999.000 -9999.000 -9999.000 -9999.000 -9999.000
-9999.000 -9999.000 -9999.000 -9999.000 -9999.000 -9999.000 -9999.000 -9999.000 -9999.000 -9999.000 -9999.000 -9999.000 -9999.000 -9999.000 -9999.000 -9999.000 -9999.000 -9999.000 -9999.000 -9999.000 -9999.000 -9999.000 -9999.000 -9999.000 -9999.000 1026.606 986.919 945.147 948.124 924.925 887.033 863.255 861.921 872.731 859.289 819.026 758.041 712.368 668.931 627.375 584.057 548.058 520.753 490.783 443.039 415.388 373.783 350.762 304.203 229.392 256.339 333.826 404.589 420.541 472.686 546.541 630.451 644.480 571.790 515.479 478.819 461.917 360.232 369.752 473.717 552.420 628.957 596.863 612.437 628.559 583.751 508.089 417.959 318.916 376.941 437.671 522.569 534.241 421.244 303.212 391.532 362.708 396.978 355.448 331.070 313.427 327.301 319.462 324.686 325.594 326.719 332.285 334.555 346.785 342.353 357.380 416.654 493.504 528.331 521.790 465.842 560.040 552.341 509.445 615.293 661.603 591.750 535.185 506.958 442.959 438.713 517.634 572.136 603.093 721.541 745.889 769.416 853.266 930.329 957.387 997.311 1055.232 1126.196 1109.624 1123.359 1115.413 1094.589 1130.948 1141.349 1155.287 1193.159 1257.627 1315.913 1380.159 -9999.000 -9999.000 -9999.000 -9999.000 -9999.000
-9999.000 -9999.000 -9999.000 -9999.000 -9999.000 -9999.000 -9999.000 -9999.000 -9999.000 -9999.000 -9999.000 -9999.000 -9999.000 -9999.000 -9999.000 -9999.000 -9999.000 -9999.000 -9999.000 -9999.000 -9999.000 -9999.000 -9999.000 -9999.000 -9999.000 -9999.000 1022.977 998.256 990.073 980.504 952.438 936.558 928.197 895.769 828.951 818.975 792.820 744.885 701.423 629.075 591.398 562.440 522.647 492.524 460.500 444.519 412.274 368.021 296.455 231.916 319.160 364.891 462.741 526.726 484.918 528.220 620.836 658.378 609.131 566.347 508.820 425.541 334.010 369.660 468.253 535.295 620.697 653.436 630.091 601.376 534.477 463.721 338.498 357.627 411.365 522.945 582.042 537.319 427.476 313.054 372.569 425.095 496.309 466.749 412.953 313.861 404.895 401.916 371.177 357.026 395.192 397.531 407.325 398.473 359.942 351.566 378.704 443.106 534.428 597.484 526.963 606.164 627.794 558.849 648.931 709.617 608.370 585.924 602.706 506.922 456.641 439.630 493.046 576.773 624.178 619.993 663.882 754.800 886.756 916.287 907.967 952.048 985.049 1038.628 1014.668 1030.809 970.267 1035.428 1066.222 1068.618 1059.859 1091.003 1193.179 1216.121 1250.683 1269.300 1380.908 1513.699 -9999.000
-9999.000 -9999.000 -9999.000 -9999.000 -9999.000 -9999.000 -9999.000 -9999.000 -9999.000 -9999.000 -9999.000 -9999.000 -9999.000 -9999.000 -9999.000 -9999.000 -9999.000 -9999.000 -9999.000 -9999.000 -9999.000 -9999.000 -9999.000 -9999.000 -9999.000 -9999.000 -9999.000 1024.071 998.561 979.386 947.585 928.870 902.770 830.065 751.883 741.676 742.630 695.324 665.759 635.922 603.849 570.136 524.490 497.006 479.040 451.627 414.004 356.966 286.716 237.085 329.836 452.114 499.535 558.946 566.226 550.119 644.366 691.324 660.794 605.592 528.764 425.910 349.641 453.606 434.287 511.784 605.915 639.081 575.773 528.896 491.906 437.835 346.244 433.495 506.190 552.192 599.069 513.248 439.118 344.114 347.453 409.256 460.899 527.013 460.424 350.016 354.711 430.554 465.509 443.792 460.434 486.637 522.179 471.119 460.046 373.638 367.398 414.154 493.492 577.361 634.101 668.186 690.415 668.244 715.557 748.959 699.884 687.590 642.178 592.413 564.373 503.185 457.779 484.939 530.315 623.270 712.865 798.765 808.729 775.612 789.503 921.283 849.233 883.230 870.359 913.782 866.520 880.817 965.110 971.922 954.232 984.713 1063.678 1090.324 1125.483 1179.278 1313.277 1441.394 1506.443
-9999.000 -9999.000 -9999.000 -9999.000 -9999.000 -9999.000 -9999.000 -9999.000 -9999.000 -9999.000 -9999.000 -9999.000 -9999.000 -9999.000 -9999.000 -9999.000 -9999.000 -9999.000 -9999.000 -9999.000 -9999.000 -9999.000 -9999.000 -9999.000 -9999.000 -9999.000 -9999.000 1002.007 968.130 935.638 880.371 870.000 829.900 735.562 710.375 699.335 683.864 642.965 636.680 620.102 597.172 560.560 530.689 502.496 480.582 442.663 411.876 355.216 269.529 285.711 379.994 482.010 559.012 618.424 667.472 658.770 668.211 617.686 569.369 521.358 471.708 409.799 368.390 465.617 505.879 501.943 590.500 644.452 578.106 488.228 427.032 392.491 364.271 465.481 550.442 625.638 603.853 535.072 446.035 352.883 341.666 408.044 447.530 554.601 481.363 408.218 330.036 354.655 430.820 531.978 520.752 560.781 589.546 552.434 545.465 465.336 361.042 392.670 467.542 534.092 602.272 671.960 701.408 744.121 794.115 843.186 792.276 743.466 696.272 656.735 602.945 526.307 542.594 467.443 476.261 539.017 620.438 698.958 679.148 685.428 815.661 830.066 757.502 770.728 762.126 802.930 777.637 804.411 842.916 808.792 810.358 891.048 945.021 996.540 1090.060 1174.800 1281.713 1387.028 1507.901
-9999.000 -9999.000 -9999.000 -9999.000 -9999.000 -9999.000 -9999.000 -9999.000 -9999.000 -9999.000 -9999.000 -9999.000 -9999.000 -9999.000 -9999.000 -9999.000 -9999.000 -9999.000 -9999.000 -9999.000 -9999.000 -9999.000 -9999.000 -9999.000 -9999.000 -9999.000 1015.834 977.713 943.502 892.431 842.925 814.588 779.731 699.602 684.124 669.876 652.429 602.784 594.691 590.206 565.311 538.101 497.862 464.362 453.711 421.170 393.665 373.300 257.580 304.588 397.871 467.568 502.109 577.192 663.835 713.630 681.134 580.793 496.002 453.094 427.096 410.672 362.974 450.970 539.667 571.620 628.306 659.123 567.480 502.975 421.676 347.116 413.521 485.167 564.037 637.872 625.767 524.601 449.264 393.566 330.692 375.138 444.599 547.270 556.037 432.671 378.821 338.635 402.292 488.644 571.063 615.201 654.561 646.345 582.097 484.240 416.548 376.063 387.705 483.102 570.543 565.782 586.375 629.400 732.665 855.251 869.313 810.147 754.035 721.266 614.737 632.784 592.407 572.247 515.411 486.614 511.483 580.589 615.561 742.591 746.299 683.282 668.651 670.398 655.435 680.947 687.928 681.687 725.042 719.003 841.498 904.983 987.758 1074.070 1226.485 1315.911 1428.253 1538.257 1595.535
-9999.000 -9999.000 -9999.000 -9999.000 -9999.000 -9999.000 -9999.000 -9999.000 -9999.000 -9999.000 -9999.000 -9999.000 -9999.000 -9999.000 -9999.000 -9999.000 -9999.000 -9999.000 -9999.000 -9999.000 -9999.000 -9999.000 -9999.000 -9999.000 -9999.000 -9999.000 1013.762 965.753 913.977 863.924 815.577 785.579 729.373 687.131 651.269 630.818 607.406 573.286 555.330 552.387 559.943 510.643 481.405 428.791 398.145 382.789 352.969 330.754 246.889 340.791 371.811 447.270 509.065 531.865 621.076 708.448 674.316 556.446 536.690 516.644 509.158 429.629 375.545 463.562 517.822 627.445 656.894 672.681 618.576 523.469 454.317 350.055 422.299 493.297 559.153 633.263 630.604 566.910 533.249 446.702 342.306 398.235 496.609 592.337 548.672 466.306 406.987 341.982 376.547 469.098 554.102 594.486 660.897 665.589 594.246 518.876 460.187 417.125 381.329 427.439 469.497 498.319 576.087 672.473 775.811 795.458 857.454 867.802 833.308 750.131 673.523 742.300 672.003 687.755 626.369 558.392 496.819 524.635 633.194 666.589 660.804 574.548 546.222 558.972 589.801 628.189 679.183 700.088 694.914 708.008 865.483 1043.358 1065.610 1187.935 1281.701 1453.369 1580.620 1694.456 -9999.000
-9999.000 -9999.000 -9999.000 -9999.000 -9999.000 -9999.000 -9999.000 -9999.000 -9999.000 -9999.000 -9999.000 -9999.000 -9999.000 -9999.000 -9999.000 -9999.000 -9999.000 -9999.000 -9999.000 -9999.000 -9999.000 -9999.000 -9999.000 -9999.000 -9999.000 -9999.000 1008.477 970.059 928.234 877.535 826.444 767.009 731.409 674.202 630.212 613.454 583.220 554.745 530.016 527.138 531.204 503.395 453.185 402.576 346.866 306.481 282.896 274.282 273.120 376.425 470.213 523.295 591.093 617.638 649.680 719.729 707.348 627.541 629.772 589.792 513.058 428.637 389.730 445.269 529.798 635.382 676.905 616.446 528.631 487.831 467.795 359.971 414.879 465.386 525.204 615.340 673.035 614.541 544.709 452.579 374.705 387.470 459.812 563.959 553.340 474.342 429.106 395.256 349.089 398.156 481.480 568.963 621.491 686.096 595.211 539.287 490.851 452.385 400.469 399.872 472.045 562.834 639.066 694.137 697.924 738.105 806.598 919.812 915.664 806.172 769.170 840.076 801.523 783.492 677.740 657.786 601.394 513.710 512.655 535.157 538.888 586.333 648.594 728.829 755.375 720.550 769.478 840.642 790.755 822.253 856.933 984.628 1062.481 1161.359 1338.787 1514.307 1668.110 -9999.000 -9999.000
-9999.000 -9999.000 -9999.000 -9999.000 -9999.000 -9999.000 -9999.000 -9999.000 -9999.000 -9999.000 -9999.000 -9999.000 -9999.000 -9999.000 -9999.000 -9999.000 -9999.000 -9999.000 -9999.000 -9999.000 -9999.000 -9999.000 -9999.000 -9999.000 -9999.000 -9999.000 1012.213 971.097 922.903 879.473 841.276 810.086 748.926 655.006 634.833 583.420 566.736 547.959 530.743 483.382 484.238 430.794 385.477 331.081 316.148 332.496 359.996 324.298 265.882 356.266 459.385 563.030 642.223 697.380 721.560 761.915 745.805 714.224 630.628 541.715 454.908 447.852 399.292 495.311 535.652 639.145 686.075 593.043 517.451 504.147 447.327 378.651 427.205 488.576 497.281 597.410 667.231 582.760 509.255 463.809 407.321 380.898 488.978 568.414 572.269 511.740 472.420 440.870 380.081 358.360 443.235 482.303 569.091 670.181 625.115 573.324 520.873 486.577 443.384 386.142 448.760 530.579 560.249 583.053 620.397 701.439 795.512 862.409 941.079 922.364 890.853 923.868 880.656 851.304 808.664 773.412 698.471 606.242 608.097 561.936 582.101 710.080 765.733 825.405 888.966 878.858 885.715 985.934 921.806 875.310 959.743 909.544 1048.320 1154.698 1331.831 1525.274 -9999.000 -9999.000 -9999.000
-9999.000 -9999.000 -9999.000 -9999.000 -9999.000 -9999.000 -9999.000 -9999.000 -9999.000 -9999.000 -9999.000 -9999.000 -9999.000 -9999.000 -9999.000 -9999.000 -9999.000 -9999.000 -9999.000 -9999.000 -9999.000 -9999.000 -9999.000 -9999.000 -9999.000 -9999.000 1003.245 956.990 918.995 877.818 851.113 812.314 732.177 662.876 634.083 573.789 544.452 526.782 512.019 477.081 422.826 359.398 387.530 414.577 447.761 412.649 370.477 290.023 306.554 342.217 381.011 493.248 597.609 611.762 660.301 731.390 773.911 686.245 592.116 531.503 525.316 458.567 426.518 517.606 585.818 679.026 708.033 609.297 572.619 586.229 510.932 396.065 434.020 518.612 559.299 576.641 673.650 629.432 564.845 511.420 431.631 350.941 441.445 541.893 578.938 542.037 524.622 498.133 442.937 368.601 403.974 530.792 599.345 672.495 699.954 645.298 604.512 574.196 521.409 418.989 400.774 442.647 486.462 560.631 636.273 714.458 725.165 748.726 862.849 871.486 847.289 850.777 922.303 883.857 842.370 803.201 763.716 725.209 690.824 601.622 582.990 724.209 786.378 844.489 890.240 986.440 1056.503 1074.023 1049.015 968.968 991.603 1042.916 1082.754 1269.177 1461.900 1659.344 -9999.000 -9999.000 -9999.000
-9999.000 -9999.000 -9999.000 -9999.000 -9999.000 -9999.000 -9999.000 -9999.000 -9999.000 -9999.000 -9999.000 -9999.000 -9999.000 -9999.000 -9999.000 -9999.000 -9999.000 -9999.000 -9999.000 -9999.000 -9999.000 -9999.000 -9999.000 -9999.000 -9999.000 -9999.000 955.258 935.995 894.143 836.533 789.850 767.994 725.997 668.329 625.018 566.232 534.692 526.075 476.923 449.450 382.764 441.720 521.583 527.804 489.320 428.022 387.644 303.950 298.063 417.966 407.717 460.963 496.495 579.195 599.768 688.941 779.182 740.980 630.059 576.373 558.971 470.137 439.520 506.657 579.662 665.601 732.085 673.784 643.494 603.804 511.769 395.424 436.420 534.125 612.327 634.807 696.193 684.968 571.704 479.046 445.897 388.759 420.466 522.525 611.804 622.922 596.373 560.717 504.216 408.616 379.975 459.607 561.046 600.813 673.235 688.978 645.612 613.940 559.473 508.923 437.630 408.763 416.340 490.558 567.761 614.501 621.054 717.206 772.414 757.429 722.866 774.113 889.570 901.091 906.474 867.769 821.689 776.458 737.374 657.584 601.177 588.524 661.121 717.383 840.985 913.849 1058.379 1156.775 1103.229 1062.393 1029.323 1052.544 1173.295 1354.670 1563.025 -9999.000 -9999.000 -9999.000 -9999.000
-9999.000 -9999.000 -9999.000 -9999.000 -9999.000 -9999.000 -9999.000 -9999.000 -9999.000 -9999.000 -9999.000 -9999.000 -9999.000 -9999.000 -9999.000 -9999.000 -9999.000 -9999.000 -9999.000 -9999.000 -9999.000 -9999.000 -9999.000 -9999.000 -9999.000 -9999.000 -9999.000 924.710 885.285 849.170 804.425 742.355 686.919 637.348 587.762 551.913 512.668 491.430 455.822 444.477 512.177 544.379 573.181 554.031 520.743 488.173 406.741 272.428 349.752 453.342 442.032 477.378 568.083 651.297 668.092 697.581 778.692 776.163 702.004 666.878 582.055 482.651 462.624 535.810 575.602 660.318 744.121 705.840 631.173 548.950 491.019 411.266 433.352 529.280 610.151 684.994 726.299 673.583 575.357 548.880 530.618 442.371 380.311 458.259 537.024 639.806 606.629 570.360 554.960 489.059 390.712 411.794 470.680 550.602 638.862 723.120 694.474 649.848 633.985 590.030 502.010 475.723 426.355 423.813 475.384 511.795 607.292 697.153 691.099 682.677 629.096 726.622 756.688 790.651 844.850 841.265 857.262 861.994 842.379 761.998 714.506 692.641 634.463 731.232 805.200 919.561 1020.209 1092.045 1123.370 1100.002 1136.745 1196.348 1297.045 1402.214 1518.784 -9999.000 -9999.000 -9999.000 -9999.000
-9999.000 -9999.000 -9999.000 -9999.000 -9999.000 -9999.000 -9999.000 -9999.000 -9999.000 -9999.000 -9999.000 -9999.000 -9999.000 -9999.000 -9999.000 -9999.000 -9999.000 -9999.000 -9999.000 -9999.000 -9999.000 -9999.000 -9999.000 -9999.000 -9999.000 -9999.000 -9999.000 930.690 878.601 841.718 799.106 744.226 682.107 635.399 583.518 588.002 555.680 536.693 540.571 577.410 587.525 597.056 584.449 563.060 546.994 508.846 398.206 282.348 358.788 467.759 479.797 566.477 557.623 628.169 704.402 749.088 791.956 819.343 761.399 679.211 601.378 508.929 452.922 550.884 633.838 702.303 758.859 701.878 587.859 514.827 507.928 455.978 410.088 479.872 542.055 612.125 713.838 720.774 657.001 630.657 559.141 471.748 389.899 444.943 555.496 646.522 623.635 588.700 555.759 483.309 418.630 387.879 465.055 529.780 602.045 698.000 758.432 746.362 700.062 614.232 574.849 543.018 484.846 438.598 441.104 462.700 536.740 620.793 601.026 578.528 564.130 611.388 625.255 657.630 672.010 668.970 692.655 754.959 842.635 850.708 797.341 742.579 656.149 690.225 855.779 913.285 896.383 949.608 1025.197 1090.831 1166.350 1197.092 1249.055 1360.616 1431.138 -9999.000 -9999.000 -9999.000 -9999.000
-9999.000 -9999.000 -9999.000 -9999.000 -9999.000 -9999.000 -9999.000 -9999.000 -9999.000 -9999.000 -9999.000 -9999.000 -9999.000 -9999.000 -9999.000 -9999.000 -9999.000 -9999.000 -9999.000 -9999.000 -9999.000 -9999.000 -9999.000 -9999.000 -9999.000 -9999.000 -9999.000 900.538 866.111 820.479 771.417 717.552 662.758 635.393 604.947 610.904 607.742 616.820 599.677 611.254 611.902 604.289 595.466 588.509 562.606 478.619 376.049 277.401 370.977 484.874 554.885 631.576 648.842 614.689 694.771 780.831 833.995 824.758 719.669 632.012 567.817 530.704 469.003 522.921 598.205 688.251 756.444 711.118 614.124 598.964 560.870 451.137 418.328 524.994 588.177 646.338 713.103 784.782 714.086 603.656 553.046 499.980 419.800 426.134 523.125 632.422 670.797 654.073 631.852 538.830 525.941 459.096 408.829 492.148 564.313 636.927 720.171 761.194 760.199 680.502 652.083 559.318 572.120 526.337 459.818 433.313 450.399 497.959 499.332 473.134 484.188 503.631 524.960 542.161 552.529 557.156 572.026 635.743 724.570 823.436 891.788 811.711 687.459 658.580 720.065 753.816 785.259 842.841 890.003 1017.334 1079.362 1097.639 1189.889 1300.301 1389.419 -9999.000 -9999.000 -9999.000 -9999.000
-9999.000 -9999.000 -9999.000 -9999.000 -9999.000 -9999.000 -9999.000 -9999.000 -9999.000 -9999.000 -9999.000 -9999.000 -9999.000 -9999.000 -9999.000 -9999.000 -9999.000 -9999.000 -9999.000 -9999.000 -9999.000 -9999.000 -9999.000 -9999.000 -9999.000 -9999.000 -9999.000 -9999.000 839.726 799.318 747.340 710.385 664.387 656.266 650.910 643.531 645.503 651.862 629.093 629.822 627.649 627.698 614.617 573.544 500.017 446.777 388.158 293.781 394.448 516.468 611.862 678.413 701.948 693.457 711.843 784.288 844.779 824.546 755.921 687.652 628.237 574.119 479.951 495.016 582.097 673.828 750.638 769.915 706.869 660.796 571.902 482.520 404.354 476.180 555.452 628.099 689.382 767.032 717.097 627.503 550.195 475.187 439.598 425.803 527.521 619.295 694.699 675.303 644.365 569.586 600.779 553.089 441.014 430.781 522.370 614.145 654.862 671.206 760.094 771.791 701.198 659.558 651.325 598.301 504.084 467.849 448.734 454.725 472.705 499.273 538.879 548.070 538.885 538.104 551.061 584.603 594.469 577.999 639.639 738.886 873.535 886.413 778.554 707.087 695.926 737.337 741.192 817.652 919.533 1015.166 1082.591 1154.395 1235.959 1340.408 1422.585 -9999.000 -9999.000 -9999.000 -9999.000
-9999.000 -9999.000 -9999.000 -9999.000 -9999.000 -9999.000 -9999.000 -9999.000 -9999.000 -9999.000 -9999.000 -9999.000 -9999.000 -9999.000 -9999.000 -9999.000 -9999.000 -9999.000 -9999.000 -9999.000 -9999.000 -9999.000 -9999.000 -9999.000 -9999.000 -9999.000 -9999.000 -9999.000 831.826 802.052 759.448 722.745 712.833 694.214 676.341 676.780 676.438 668.316 658.604 649.737 644.484 627.927 582.232 521.475 489.497 422.217 415.116 315.327 416.192 530.741 625.418 682.695 719.221 759.653 783.792 829.177 856.734 804.857 737.350 662.750 605.326 530.955 499.302 576.919 574.853 649.298 742.928 788.767 711.946 621.407 544.654 489.544 420.775 522.389 559.817 586.102 641.810 762.063 743.022 645.332 587.560 535.667 463.786 398.803 498.602 599.903 690.295 681.813 666.739 646.572 622.423 594.263 525.228 422.420 463.281 501.448 547.488 607.569 687.597 755.156 767.594 748.819 692.348 587.474 612.017 588.514 486.861 482.728 573.261 612.937 670.002 669.131 637.498 624.970 664.804 716.721 733.197 642.292 598.802 682.416 837.739 990.912 900.413 852.486 776.869 873.467 891.754 833.019 873.363 995.258 1073.959 1176.150 1330.894 1458.694 -9999.000 -9999.000 -9999.000 -9999.000 -9999.000
-9999.000 -9999.000 -9999.000 -9999.000 -9999.000 -9999.000 -9999.000 -9999.000 -9999.000 -9999.000 -9999.000 -9999.000 -9999.000 -9999.000 -9999.000 -9999.000 -9999.000 -9999.000 -9999.000 -9999.000 -9999.000 -9999.000 -9999.000 -9999.000 -9999.000 -9999.000 -9999.000 -9999.000 853.568 824.156 781.746 755.565 750.927 733.845 726.374 718.108 699.376 684.550 680.171 664.353 642.066 620.000 553.344 498.560 467.018 406.074 395.262 312.568 378.893 498.741 558.052 606.782 661.351 726.033 809.855 864.813 852.795 786.785 706.060 651.324 593.963 574.788 508.583 589.524 652.287 677.746 751.846 761.049 684.209 613.933 607.442 523.265 426.433 514.158 615.921 689.670 689.867 760.316 794.884 725.623 630.029 552.390 476.775 423.285 475.811 575.590 675.126 734.260 730.500 716.020 667.609 614.159 557.754 492.301 455.413 489.235 466.654 531.693 603.084 706.924 801.090 816.842 704.066 677.991 718.144 633.505 520.894 478.915 588.887 709.741 799.545 821.057 757.339 738.323 763.971 849.066 804.116 708.434 623.567 670.375 842.002 1004.893 1029.431 986.037 875.040 862.541 978.655 960.773 904.562 968.168 1086.744 1197.023 1354.181 -9999.000 -9999.000 -9999.000 -9999.000 -9999.000 -9999.000
-9999.000 -9999.000 -9999.000 -9999.000 -9999.000 -9999.000 -9999.000 -9999.000 -9999.000 -9999.000 -9999.000 -9999.000 -9999.000 -9999.000 -9999.000 -9999.000 -9999.000 -9999.000 -9999.000 -9999.000 -9999.000 -9999.000 -9999.000 -9999.000 -9999.000 -9999.000 -9999.000 881.535 875.960 838.591 806.233 799.588 788.553 770.019 764.117 745.113 713.546 694.257 682.266 656.827 626.053 582.200 512.945 457.518 409.522 369.898 340.375 290.546 359.079 429.425 471.702 512.233 591.244 679.119 774.007 846.529 844.619 773.055 720.167 672.452 615.950 551.465 546.558 605.422 683.215 738.400 767.066 740.361 712.607 685.226 631.541 543.259 453.774 488.423 588.239 654.484 734.619 810.029 819.149 727.081 633.035 565.605 524.885 446.443 455.418 565.474 634.987 702.868 779.395 774.534 738.415 675.756 571.947 512.179 456.350 576.320 548.628 484.293 593.846 681.460 755.571 840.852 770.067 768.927 735.354 608.907 593.803 535.644 522.683 641.048 748.635 854.253 900.763 871.259 865.778 903.769 802.673 752.075 679.662 705.872 879.222 993.797 1076.467 1066.611 987.533 950.378 1016.534 1105.774 1056.793 1015.221 1085.374 1218.671 -9999.000 -9999.000 -9999.000 -9999.000 -9999.000 -9999.000 -9999.000
-9999.000 -9999.000 -9999.000 -9999.000 -9999.000 -9999.000 -9999.000 -9999.000 -9999.000 -9999.000 -9999.000 -9999.000 -9999.000 -9999.000 -9999.000 -9999.000 -9999.000 -9999.000 -9999.000 -9999.000 -9999.000 -9999.000 -9999.000 -9999.000 -9999.000 -9999.000 -9999.000 921.134 903.114 868.230 859.423 855.572 834.002 805.677 788.551 757.051 735.579 701.183 678.484 644.890 590.732 502.417 432.656 407.801 379.892 355.318 318.497 294.590 340.209 393.129 426.348 501.055 597.235 676.001 757.066 829.161 835.621 807.861 735.691 655.838 597.340 577.305 577.290 623.192 685.239 755.686 755.829 719.968 688.298 665.795 622.712 565.526 485.691 468.378 544.990 638.466 725.851 797.970 830.420 739.284 692.759 668.363 595.571 488.842 443.067 514.597 608.381 683.784 769.017 783.795 756.080 687.226 588.020 518.169 475.553 591.667 640.492 557.376 524.953 623.395 720.122 813.992 868.976 854.801 717.097 667.050 696.088 606.418 511.274 590.502 696.193 755.630 903.372 981.783 989.065 970.968 844.216 779.253 720.842 679.914 790.515 929.122 1038.367 1079.767 1095.529 1056.880 1128.214 1174.686 1172.150 1134.052 1155.317 1335.463 -9999.000 -9999.000 -9999.000 -9999.000 -9999.000 -9999.000 -9999.000
-9999.000 -9999.000 -9999.000 -9999.000 -9999.000 -9999.000 -9999.000 -9999.000 -9999.000 -9999.000 -9999.000 -9999.000 -9999.000 -9999.000 -9999.000 -9999.000 -9999.000 -9999.000 -9999.000 -9999.000 -9999.000 -9999.000 -9999.000 -9999.000 -9999.000 -9999.000 -9999.000 960.663 936.322 920.996 918.223 911.811 877.312 842.408 808.132 772.728 747.635 719.008 681.447 631.175 538.514 462.338 460.095 425.639 396.758 367.806 338.276 299.414 352.882 462.272 518.672 543.847 578.978 645.840 712.325 789.568 826.277 788.663 722.543 671.099 625.698 596.810 618.565 648.550 702.427 762.332 750.561 713.130 671.203 600.167 579.830 562.405 511.453 436.776 513.438 575.358 660.117 738.632 812.558 821.197 757.962 674.586 570.298 501.169 444.059 509.730 599.755 671.526 754.462 782.522 759.253 704.001 604.505 533.857 487.476 609.246 707.162 655.110 577.065 550.407 661.879 767.710 843.620 880.446 767.338 772.780 771.913 666.425 570.033 530.490 616.189 729.548 820.031 885.352 935.134 992.651 941.858 803.103 781.154 736.053 748.997 870.100 916.538 1015.635 1127.006 1171.731 1205.287 1219.550 1190.341 1178.368 1245.113 -9999.000 -9999.000 -9999.000 -9999.000 -9999.000 -9999.000 -9999.000 -9999.000
-9999.000 -9999.000 -9999.000 -9999.000 -9999.000 -9999.000 -9999.000 -9999.000 -9999.000 -9999.000 -9999.000 -9999.000 -9999.000 -9999.000 -9999.000 -9999.000 -9999.000 -9999.000 -9999.000 -9999.000 -9999.000 -9999.000 -9999.000 -9999.000 -9999.000 -9999.000 -9999.000 980.537 998.532 977.742 969.754 950.708 909.580 871.092 829.267 786.907 740.082 719.803 675.853 604.653 526.158 491.157 465.148 427.468 395.456 347.862 329.222 302.923 356.875 480.741 576.880 619.542 629.039 640.404 695.999 767.605 818.060 805.880 741.934 670.608 665.613 647.983 661.326 688.654 736.658 779.500 749.317 699.717 652.234 586.917 550.531 517.126 480.557 441.953 537.449 598.045 643.643 707.031 799.513 844.415 743.462 622.445 560.929 542.578 482.543 478.179 546.193 651.670 748.588 788.059 757.787 726.286 625.910 543.887 497.800 614.820 724.641 749.442 681.912 593.115 609.715 723.597 826.824 911.369 870.815 867.231 846.267 737.302 633.723 596.351 558.350 671.312 707.564 764.550 822.350 887.798 988.316 899.476 859.191 822.392 781.576 786.641 858.570 983.607 1048.681 1109.423 1192.042 -9999.000 -9999.000 -9999.000 -9999.000 -9999.000 -9999.000 -9999.000 -9999.000 -9999.000 -9999.000 -9999.000 -9999.000
-9999.000 -9999.000 -9999.000 -9999.000 -9999.000 -9999.000 -9999.000 -9999.000 -9999.000 -9999.000 -9999.000 -9999.000 -9999.000 -9999.000 -9999.000 -9999.000 -9999.000 -9999.000 -9999.000 -9999.000 -9999.000 -9999.000 -9999.000 -9999.000 -9999.000 -9999.000 -9999.000 -9999.000 -9999.000 1028.900 1010.212 969.995 927.199 883.511 833.553 790.137 733.589 677.506 635.926 599.417 548.116 497.986 465.087 440.859 404.246 365.192 317.554 308.158 364.565 460.168 536.371 595.137 619.674 661.839 718.357 773.268 824.550 805.699 743.523 714.644 696.124 688.936 707.585 738.181 777.778 791.410 749.172 690.395 627.469 580.537 545.024 507.480 473.709 458.009 508.987 567.096 626.913 716.663 794.043 833.839 755.613 716.066 688.076 611.064 509.661 477.628 576.311 656.980 706.183 750.333 761.652 734.767 653.635 556.524 510.172 630.548 710.932 821.199 779.023 661.975 598.078 669.494 760.943 855.473 934.494 962.295 866.404 744.713 658.450 642.920 573.195 642.737 697.395 759.239 809.996 845.105 940.570 1021.312 1011.952 979.060 894.070 858.200 849.967 938.840 980.512 1092.164 1168.593 -9999.000 -9999.000 -9999.000 -9999.000 -9999.000 -9999.000 -9999.000 -9999.000 -9999.000 -9999.000 -9999.000 -9999.000
-9999.000 -9999.000 -9999.000 -9999.000 -9999.000 -9999.000 -9999.000 -9999.000 -9999.000 -9999.000 -9999.000 -9999.000 -9999.000 -9999.000 -9999.000 -9999.000 -9999.000 -9999.000 -9999.000 -9999.000 -9999.000 -9999.000 -9999.000 -9999.000 -9999.000 -9999.000 -9999.000 -9999.000 -9999.000 1059.129 1030.681 994.656 953.211 905.290 855.393 805.224 744.768 696.399 645.909 608.314 554.388 535.230 535.617 509.484 430.903 377.274 341.430 321.589 346.051 387.546 457.934 506.625 584.236 666.543 726.475 792.550 839.351 825.391 808.210 742.419 722.724 736.483 762.766 791.065 819.748 795.233 732.929 688.084 627.137 561.002 524.167 512.438 508.002 505.145 490.306 533.002 602.393 658.492 744.858 803.252 800.570 740.453 691.380 618.227 552.188 466.041 533.288 593.606 640.737 696.476 762.830 742.785 706.640 612.112 515.078 599.241 705.281 816.787 848.391 739.100 632.029 722.856 727.599 835.377 934.570 1003.486 867.490 806.005 762.963 661.251 604.544 719.445 812.260 859.692 929.245 953.836 953.459 1032.884 1130.030 1124.928 1074.009 962.667 893.639 906.186 969.565 1050.839 1119.805 1157.988 -9999.000 -9999.000 -9999.000 -9999.000 -9999.000 -9999.000 -9999.000 -9999.000 -9999.000 -9999.000 -9999.000
-9999.000 -9999.000 -9999.000 -9999.000 -9999.000 -9999.000 -9999.000 -9999.000 -9999.000 -9999.000 -9999.000 -9999.000 -9999.000 -9999.000 -9999.000 -9999.000 -9999.000 -9999.000 -9999.000 -9999.000 -9999.000 -9999.000 -9999.000 -9999.000 -9999.000 -9999.000 -9999.000 -9999.000 -9999.000 1076.601 1047.435 999.721 964.309 908.304 853.602 799.956 758.159 720.452 671.959 627.272 606.423 587.644 531.463 488.745 423.872 409.241 352.126 322.949 371.667 417.546 428.422 481.472 575.876 636.794 683.171 738.041 823.455 846.998 840.976 799.497 769.408 799.308 828.820 850.953 830.956 785.127 721.507 670.322 616.821 549.960 525.472 548.900 538.713 522.867 497.853 540.090 577.847 630.669 707.220 778.464 768.164 724.717 702.833 650.977 580.127 548.686 500.249 549.228 617.077 664.607 742.976 736.445 710.803 647.023 535.973 584.393 662.059 770.318 862.734 743.782 664.194 774.487 839.728 851.095 955.903 1030.832 898.629 795.628 688.739 627.019 626.118 674.309 794.026 911.517 1016.056 1072.567 1059.768 1045.063 1117.167 1192.201 1145.025 1060.260 1039.855 1054.055 1031.403 1043.280 1110.588 1149.907 -9999.000 -9999.000 -9999.000 -9999.000 -9999.000 -9999.000 -9999.000 -9999.000 -9999.000 -9999.000 -9999.000
-9999.000 -9999.000 -9999.000 -9999.000 -9999.000 -9999.000 -9999.000 -9999.000 -9999.000 -9999.000 -9999.000 -9999.000 -9999.000 -9999.000 -9999.000 -9999.000 -9999.000 -9999.000 -9999.000 -9999.000 -9999.000 -9999.000 -9999.000 -9999.000 -9999.000 -9999.000 -9999.000 -9999.000 -9999.000 1086.249 1034.008 1000.901 955.425 906.096 844.555 803.187 775.257 740.855 681.905 670.985 659.598 624.546 554.937 495.999 450.445 409.429 355.520 322.441 382.488 425.955 485.617 495.938 514.935 571.213 647.759 714.893 810.331 876.282 882.793 863.560 848.630 858.811 887.578 876.605 831.155 780.320 712.727 661.591 615.309 539.988 582.417 579.189 564.006 551.661 524.709 505.641 529.734 605.335 690.087 762.414 749.302 718.491 689.801 644.756 610.929 562.529 534.395 539.906 600.368 668.564 739.595 740.586 718.434 679.657 560.116 598.529 715.982 821.521 882.618 761.791 697.706 809.758 918.636 964.427 1022.310 960.863 851.444 747.102 683.807 751.328 722.213 635.147 756.752 877.262 998.141 1109.527 1164.341 1138.175 1161.626 1228.266 1186.648 1143.885 1173.296 1166.369 1146.546 1148.830 1144.167 -9999.000 -9999.000 -9999.000 -9999.000 -9999.000 -9999.000 -9999.000 -9999.000 -9999.000 -9999.000 -9999.000 -9999.000
-9999.000 -9999.000 -9999.000 -9999.000 -9999.000 -9999.000 -9999.000 -9999.000 -9999.000 -9999.000 -9999.000 -9999.000 -9999.000 -9999.000 -9999.000 -9999.000 -9999.000 -9999.000 -9999.000 -9999.000 -9999.000 -9999.000 -9999.000 -9999.000 -9999.000 -9999.000 -9999.000 -9999.000 -9999.000 1084.403 1033.943 990.779 945.139 902.412 859.405 819.447 795.480 770.669 761.028 730.005 684.182 619.518 577.223 531.534 484.298 429.527 362.238 352.126 385.214 466.416 533.683 558.881 570.489 603.950 673.813 737.958 812.913 884.508 914.702 915.817 909.390 920.435 930.000 908.844 837.200 760.757 717.212 647.634 583.730 589.855 618.772 610.680 585.859 560.127 545.383 550.809 531.224 617.422 699.272 768.963 740.098 717.601 691.028 645.184 614.325 577.299 536.976 547.994 596.149 655.646 709.077 741.199 716.494 690.129 580.559 603.002 722.450 839.261 913.615 811.068 727.075 799.148 914.443 1024.943 1088.015 973.828 851.645 745.984 777.789 856.291 816.908 712.356 739.157 871.102 982.192 1058.136 1140.135 1203.222 1225.033 1277.508 1293.817 1265.367 1294.031 1293.639 1259.113 1230.208 -9999.000 -9999.000 -9999.000 -9999.000 -9999.000 -9999.000 -9999.000 -9999.000 -9999.000 -9999.000 -9999.000 -9999.000 -9999.000
-9999.000 -9999.000 -9999.000 -9999.000 -9999.000 -9999.000 -9999.000 -9999.000 -9999.000 -9999.000 -9999.000 -9999.000 -9999.000 -9999.000 -9999.000 -9999.000 -9999.000 -9999.000 -9999.000 -9999.000 -9999.000 -9999.000 -9999.000 -9999.000 -9999.000 -9999.000 -9999.000 -9999.000 -9999.000 1091.863 1045.333 995.840 953.646 916.757 879.435 856.137 838.067 822.967 791.301 742.438 696.165 644.111 590.751 514.099 447.294 406.254 359.142 359.897 401.803 476.465 557.955 587.267 629.717 630.269 683.659 749.042 808.280 868.321 909.131 944.634 955.487 962.518 958.026 919.088 838.889 769.768 704.446 608.775 597.586 648.433 652.676 640.736 621.519 598.244 579.805 565.110 532.863 600.814 692.593 765.971 739.653 719.939 697.775 671.126 628.201 597.566 571.685 532.962 601.790 631.762 662.793 713.689 736.350 703.220 600.066 606.004 705.299 791.261 889.486 893.616 815.496 761.530 880.885 992.154 1083.484 974.331 881.091 789.428 841.079 936.032 892.250 794.928 729.844 828.028 901.193 956.727 1046.914 1135.876 1208.163 1288.817 1365.337 1385.633 1362.740 -9999.000 -9999.000 -9999.000 -9999.000 -9999.000 -9999.000 -9999.000 -9999.000 -9999.000 -9999.000 -9999.000 -9999.000 -9999.000 -9999.000 -9999.000 -9999.000
-9999.000 -9999.000 -9999.000 -9999.000 -9999.000 -9999.000 -9999.000 -9999.000 -9999.000 -9999.000 -9999.000 -9999.000 -9999.000 -9999.000 -9999.000 -9999.000 -9999.000 -9999.000 -9999.000 -9999.000 -9999.000 -9999.000 -9999.000 -9999.000 -9999.000 -9999.000 -9999.000 -9999.000 -9999.000 1083.178 1044.285 1008.105 965.804 929.426 895.942 880.191 856.128 793.928 745.746 721.821 674.877 628.271 570.832 493.367 445.386 410.379 351.658 358.719 445.649 507.230 543.230 580.517 624.702 665.758 688.855 710.440 759.348 821.887 877.861 938.542 970.164 957.964 942.958 878.419 795.343 725.685 671.329 672.797 624.831 682.888 685.296 677.138 658.296 641.039 616.241 593.179 544.847 608.295 696.628 767.632 756.392 735.273 713.183 686.614 652.242 636.348 602.730 544.639 569.458 608.730 646.234 667.309 730.253 710.392 616.012 630.338 724.496 795.384 880.894 970.490 894.684 868.628 857.699 966.729 1076.247 1066.683 937.603 840.943 902.425 998.064 948.444 870.196 800.270 805.550 916.982 1031.196 1118.151 1154.605 1205.951 1293.755 1367.065 -9999.000 -9999.000 -9999.000 -9999.000 -9999.000 -9999.000 -9999.000 -9999.000 -9999.000 -9999.000 -9999.000 -9999.000 -9999.000 -9999.000 -9999.000 -9999.000 -9999.000 -9999.000
-9999.000 -9999.000 -9999.000 -9999.000 -9999.000 -9999.000 -9999.000 -9999.000 -9999.000 -9999.000 -9999.000 -9999.000 -9999.000 -9999.000 -9999.000 -9999.000 -9999.000 -9999.000 -9999.000 -9999.000 -9999.000 -9999.000 -9999.000 -9999.000 -9999.000 -9999.000 -9999.000 -9999.000 -9999.000 1064.847 1034.359 1013.328 983.441 944.929 914.903 888.996 826.894 772.912 728.844 692.860 654.060 608.668 568.150 521.425 474.527 447.739 362.434 367.722 400.839 440.115 532.945 563.311 621.404 653.645 732.919 793.255 809.689 868.911 920.480 957.561 969.864 924.488 896.462 838.725 764.354 732.587 737.121 695.340 652.827 717.773 720.773 710.958 696.461 672.261 655.842 621.918 559.463 616.499 702.009 768.262 769.560 738.798 714.507 691.982 674.617 654.179 621.247 579.866 593.248 562.218 614.185 632.399 695.392 753.047 642.522 631.684 741.162 831.499 916.759 1016.113 1019.354 972.359 933.513 962.795 1076.142 1109.853 1004.755 908.521 972.085 1061.230 1018.502 906.926 883.811 915.282 924.676 1057.399 1189.511 1241.439 1286.596 1339.201 1395.841 -9999.000 -9999.000 -9999.000 -9999.000 -9999.000 -9999.000 -9999.000 -9999.000 -9999.000 -9999.000 -9999.000 -9999.000 -9999.000 -9999.000 -9999.000 -9999.000 -9999.000 -9999.000
-9999.000 -9999.000 -9999.000 -9999.000 -9999.000 -9999.000 -9999.000 -9999.000 -9999.000 -9999.000 -9999.000 -9999.000 -9999.000 -9999.000 -9999.000 -9999.000 -9999.000 -9999.000 -9999.000 -9999.000 -9999.000 -9999.000 -9999.000 -9999.000 -9999.000 -9999.000 -9999.000 -9999.000 -9999.000 1084.681 1054.227 1028.992 994.904 961.518 930.092 872.802 816.206 774.640 736.022 708.218 648.946 583.430 537.708 522.640 465.271 430.535 383.457 361.769 405.777 448.628 491.585 573.565 621.763 665.820 734.036 831.600 883.477 925.265 974.155 1007.671 965.403 900.551 855.840 809.196 781.733 791.234 761.025 688.778 700.478 755.456 763.677 751.641 725.970 710.658 689.101 637.420 570.592 623.187 693.221 757.054 758.281 731.012 705.920 690.741 684.063 647.449 589.656 603.490 635.453 660.701 619.764 604.773 683.542 771.418 708.907 625.248 681.621 781.590 879.458 960.062 1045.657 1082.818 1036.653 980.776 1087.491 1174.104 1066.526 994.478 1054.321 1135.112 1069.182 952.424 971.322 1043.997 1006.857 1055.321 1167.366 1277.760 1341.302 1366.632 -9999.000 -9999.000 -9999.000 -9999.000 -9999.000 -9999.000 -9999.000 -9999.000 -9999.000 -9999.000 -9999.000 -9999.000 -9999.000 -9999.000 -9999.000 -9999.000 -9999.000 -9999.000 -9999.000
-9999.000 -9999.000 -9999.000 -9999.000 -9999.000 -9999.000 -9999.000 -9999.000 -9999.000 -9999.000 -9999.000 -9999.000 -9999.000 -9999.000 -9999.000 -9999.000 -9999.000 -9999.000 -9999.000 -9999.000 -9999.000 -9999.000 -9999.000 -9999.000 -9999.000 -9999.000 -9999.000 -9999.000 -9999.000 1115.776 1093.293 1058.853 992.292 950.893 911.028 863.011 820.716 779.367 747.184 708.517 657.904 610.297 540.737 505.672 459.313 440.037 372.021 376.147 417.004 458.757 506.195 578.292 621.341 675.790 743.434 825.463 903.306 958.007 989.682 1020.009 972.566 905.169 841.843 800.179 811.672 802.809 750.154 686.003 736.474 786.933 810.610 786.570 761.234 753.039 719.286 651.890 585.842 658.661 690.598 732.320 756.411 730.545 698.722 675.609 683.901 600.148 646.995 643.292 688.809 740.758 716.845 644.493 674.799 780.544 773.326 689.748 657.470 747.659 804.929 859.006 950.255 1046.673 1124.339 1079.032 1131.081 1218.853 1133.222 1105.664 1150.561 1211.735 1113.338 1082.349 1066.343 1151.434 1136.899 1178.871 1226.179 1294.540 -9999.000 -9999.000 -9999.000 -9999.000 -9999.000 -9999.000 -9999.000 -9999.000 -9999.000 -9999.000 -9999.000 -9999.000 -9999.000 -9999.000 -9999.000 -9999.000 -9999.000 -9999.000 -9999.000 -9999.000 -9999.000
-9999.000 -9999.000 -9999.000 -9999.000 -9999.000 -9999.000 -9999.000 -9999.000 -9999.000 -9999.000 -9999.000 -9999.000 -9999.000 -9999.000 -9999.000 -9999.000 -9999.000 -9999.000 -9999.000 -9999.000 -9999.000 -9999.000 -9999.000 -9999.000 -9999.000 -9999.000 -9999.000 -9999.000 -9999.000 1110.068 1101.364 1039.691 982.385 925.752 889.622 865.520 841.229 784.709 740.821 717.172 670.596 624.417 568.063 507.863 481.255 450.400 364.627 399.429 446.762 505.148 535.289 564.742 634.279 690.261 742.225 814.553 892.648 961.276 969.843 984.090 950.277 881.478 825.011 822.881 827.014 793.827 730.816 718.411 755.449 807.709 845.701 807.554 794.185 782.265 736.725 662.202 595.292 665.196 734.537 769.733 773.448 729.960 705.102 679.631 660.718 644.767 677.795 677.626 729.777 783.437 746.430 672.069 677.416 783.789 790.601 730.962 681.867 697.414 738.491 806.416 881.700 987.900 1105.193 1173.967 1186.027 1260.205 1253.820 1235.453 1262.878 1302.071 1223.961 1208.635 1195.894 1246.615 1258.016 1261.978 -9999.000 -9999.000 -9999.000 -9999.000 -9999.000 -9999.000 -9999.000 -9999.000 -9999.000 -9999.000 -9999.000 -9999.000 -9999.000 -9999.000 -9999.000 -9999.000 -9999.000 -9999.000 -9999.000 -9999.000 -9999.000 -9999.000 -9999.000
-9999.000 -9999.000 -9999.000 -9999.000 -9999.000 -9999.000 -9999.000 -9999.000 -9999.000 -9999.000 -9999.000 -9999.000 -9999.000 -9999.000 -9999.000 -9999.000 -9999.000 -9999.000 -9999.000 -9999.000 -9999.000 -9999.000 -9999.000 -9999.000 -9999.000 -9999.000 -9999.000 -9999.000 1098.793 1047.151 1034.232 958.419 926.076 842.237 782.411 765.412 774.515 749.367 714.667 670.371 630.679 592.102 532.509 501.459 453.478 422.900 363.699 406.857 458.288 478.057 528.148 570.861 621.764 687.505 750.306 804.265 882.888 943.850 924.660 926.682 925.995 882.400 868.637 869.214 832.443 787.592 731.532 727.669 779.646 826.223 849.990 831.785 819.713 792.493 727.531 665.809 617.014 619.524 711.762 762.805 792.710 763.990 727.025 703.653 678.187 664.316 703.725 718.164 780.897 826.305 746.936 669.742 714.134 804.996 840.343 820.394 746.928 720.442 807.067 765.363 854.831 962.825 1064.313 1197.774 1276.083 1318.489 1352.125 1362.537 1379.068 1361.881 1310.982 1280.796 1255.935 -9999.000 -9999.000 -9999.000 -9999.000 -9999.000 -9999.000 -9999.000 -9999.000 -9999.000 -9999.000 -9999.000 -9999.000 -9999.000 -9999.000 -9999.000 -9999.000 -9999.000 -9999.000 -9999.000 -9999.000 -9999.000 -9999.000 -9999.000 -9999.000 -9999.000 -9999.000
-9999.000 -9999.000 -9999.000 -9999.000 -9999.000 -9999.000 -9999.000 -9999.000 -9999.000 -9999.000 -9999.000 -9999.000 -9999.000 -9999.000 -9999.000 -9999.000 -9999.000 -9999.000 -9999.000 -9999.000 -9999.000 -9999.000 -9999.000 -9999.000 -9999.000 -9999.000 -9999.000 1130.607 1069.245 1005.306 959.107 870.964 862.034 828.933 746.875 674.063 698.087 686.859 649.954 623.165 587.263 564.614 535.811 510.544 472.463 425.350 371.823 382.639 458.329 546.704 595.486 635.335 674.478 716.441 768.858 845.067 889.370 907.670 908.674 891.824 891.540 896.937 890.653 849.117 790.710 756.657 727.135 751.346 803.053 857.186 881.896 846.773 801.052 760.880 724.684 680.301 643.804 609.245 665.708 741.682 812.923 845.202 811.765 770.913 709.258 700.158 761.547 802.528 850.946 847.242 746.596 675.938 743.681 822.741 906.392 886.550 787.379 734.867 795.390 873.557 870.087 934.926 1014.178 1105.305 1204.664 1325.168 1353.252 -9999.000 -9999.000 -9999.000 -9999.000 -9999.000 -9999.000 -9999.000 -9999.000 -9999.000 -9999.000 -9999.000 -9999.000 -9999.000 -9999.000 -9999.000 -9999.000 -9999.000 -9999.000 -9999.000 -9999.000 -9999.000 -9999.000 -9999.000 -9999.000 -9999.000 -9999.000 -9999.000 -9999.000 -9999.000 -9999.000 -9999.000 -9999.000
-9999.000 -9999.000 -9999.000 -9999.000 -9999.000 -9999.000 -9999.000 -9999.000 -9999.000 -9999.000 -9999.000 -9999.000 -9999.000 -9999.000 -9999.000 -9999.000 -9999.000 -9999.000 -9999.000 -9999.000 -9999.000 -9999.000 -9999.000 -9999.000 -9999.000 -9999.000 1122.740 1052.462 1006.316 953.498 886.865 816.248 760.708 806.010 773.663 673.583 609.142 640.495 582.246 541.087 504.896 472.463 447.379 416.460 393.082 395.243 427.293 372.557 420.074 525.452 606.736 676.563 717.533 765.041 821.275 859.066 870.934 851.527 872.783 879.999 841.812 870.053 874.938 830.052 780.568 749.006 753.733 778.429 832.182 888.697 916.366 846.064 801.325 764.162 718.637 679.920 650.290 614.508 682.416 752.954 830.039 896.690 885.784 834.856 746.920 698.141 783.879 861.024 920.153 881.487 784.080 694.755 779.719 852.474 932.179 956.611 835.585 802.022 837.833 875.470 949.792 968.225 1013.105 1070.864 1199.041 1326.484 -9999.000 -9999.000 -9999.000 -9999.000 -9999.000 -9999.000 -9999.000 -9999.000 -9999.000 -9999.000 -9999.000 -9999.000 -9999.000 -9999.000 -9999.000 -9999.000 -9999.000 -9999.000 -9999.000 -9999.000 -9999.000 -9999.000 -9999.000 -9999.000 -9999.000 -9999.000 -9999.000 -9999.000 -9999.000 -9999.000 -9999.000 -9999.000 -9999.000
-9999.000 -9999.000 -9999.000 -9999.000 -9999.000 -9999.000 -9999.000 -9999.000 -9999.000 -9999.000 -9999.000 -9999.000 -9999.000 -9999.000 -9999.000 -9999.000 -9999.000 -9999.000 -9999.000 -9999.000 -9999.000 -9999.000 -9999.000 -9999.000 -9999.000 -9999.000 1118.650 1054.514 1015.466 953.268 882.134 786.971 721.373 674.138 681.030 653.279 571.136 561.932 493.997 472.470 493.964 481.066 469.586 473.900 466.636 482.647 457.793 413.111 388.879 450.237 536.177 624.069 695.407 747.127 778.853 794.767 816.421 811.494 819.579 824.422 800.054 831.126 850.676 820.279 789.356 808.031 802.054 802.157 861.314 917.172 944.371 898.490 815.511 755.123 722.817 682.131 647.860 620.939 673.473 741.072 818.432 900.771 934.838 880.268 815.715 758.599 773.233 862.120 938.057 898.769 803.585 717.730 805.101 898.852 986.603 999.818 901.143 812.303 901.220 925.793 977.821 1043.888 1053.838 1117.992 1213.665 1342.915 -9999.000 -9999.000 -9999.000 -9999.000 -9999.000 -9999.000 -9999.000 -9999.000 -9999.000 -9999.000 -9999.000 -9999.000 -9999.000 -9999.000 -9999.000 -9999.000 -9999.000 -9999.000 -9999.000 -9999.000 -9999.000 -9999.000 -9999.000 -9999.000 -9999.000 -9999.000 -9999.000 -9999.000 -9999.000 -9999.000 -9999.000 -9999.000 -9999.000
-9999.000 -9999.000 -9999.000 -9999.000 -9999.000 -9999.000 -9999.000 -9999.000 -9999.000 -9999.000 -9999.000 -9999.000 -9999.000 -9999.000 -9999.000 -9999.000 -9999.000 -9999.000 -9999.000 -9999.000 -9999.000 -9999.000 -9999.000 -9999.000 -9999.000 -9999.000 1159.670 1099.658 1033.378 946.903 890.589 805.593 702.411 653.474 592.200 545.332 535.388 511.439 480.584 545.400 555.473 537.004 534.077 541.232 547.793 483.008 448.212 429.758 413.861 394.739 488.092 581.391 636.582 699.434 725.792 742.231 772.907 761.638 765.284 781.453 754.357 790.359 810.358 820.769 831.925 854.576 845.853 851.744 882.160 923.699 922.540 858.441 807.448 753.924 706.198 680.325 647.939 629.623 670.870 724.612 789.029 875.685 949.847 931.434 883.091 823.263 794.073 883.121 954.571 925.270 825.858 752.222 822.562 915.911 1013.855 1081.850 993.400 882.117 922.828 955.130 1020.596 1059.450 1188.821 1231.337 1308.557 1345.132 -9999.000 -9999.000 -9999.000 -9999.000 -9999.000 -9999.000 -9999.000 -9999.000 -9999.000 -9999.000 -9999.000 -9999.000 -9999.000 -9999.000 -9999.000 -9999.000 -9999.000 -9999.000 -9999.000 -9999.000 -9999.000 -9999.000 -9999.000 -9999.000 -9999.000 -9999.000 -9999.000 -9999.000 -9999.000 -9999.000 -9999.000 -9999.000 -9999.000
-9999.000 -9999.000 -9999.000 -9999.000 -9999.000 -9999.000 -9999.000 -9999.000 -9999.000 -9999.000 -9999.000 -9999.000 -9999.000 -9999.000 -9999.000 -9999.000 -9999.000 -9999.000 -9999.000 -9999.000 -9999.000 -9999.000 -9999.000 -9999.000 1159.985 1124.933 1091.308 1047.937 973.062 884.387 806.183 728.001 672.791 641.260 627.448 574.629 530.112 506.020 548.637 555.648 585.752 608.326 602.586 598.301 535.122 500.483 498.424 475.981 446.313 417.424 412.801 503.856 565.629 615.528 655.230 695.371 730.063 726.033 719.634 739.724 721.970 751.781 785.383 821.330 855.747 892.986 895.245 897.936 909.098 898.983 873.573 826.026 779.352 735.742 696.220 662.012 640.517 639.677 695.403 739.618 807.777 887.199 964.555 996.491 941.373 866.769 861.988 933.960 995.702 973.687 861.545 780.540 830.849 920.161 1019.730 1115.520 1077.580 991.262 958.848 1007.967 1041.919 1055.531 1164.225 1292.949 1341.648 -9999.000 -9999.000 -9999.000 -9999.000 -9999.000 -9999.000 -9999.000 -9999.000 -9999.000 -9999.000 -9999.000 -9999.000 -9999.000 -9999.000 -9999.000 -9999.000 -9999.000 -9999.000 -9999.000 -9999.000 -9999.000 -9999.000 -9999.000 -9999.000 -9999.000 -9999.000 -9999.000 -9999.000 -9999.000 -9999.000 -9999.000 -9999.000 -9999.000 -9999.000
-9999.000 -9999.000 -9999.000 -9999.000 -9999.000 -9999.000 -9999.000 -9999.000 -9999.000 -9999.000 -9999.000 -9999.000 -9999.000 -9999.000 -9999.000 -9999.000 -9999.000 -9999.000 -9999.000 -9999.000 -9999.000 -9999.000 -9999.000 1164.507 1126.423 1096.079 1040.305 991.499 942.370 854.473 767.930 711.699 705.641 685.576 636.229 587.818 538.602 601.269 630.611 634.715 632.997 626.800 648.018 589.883 558.351 553.796 552.269 483.515 486.360 467.713 424.695 421.215 494.567 532.041 571.178 629.438 653.931 685.718 680.499 710.862 696.849 751.055 765.484 798.299 835.274 892.793 930.510 948.181 944.296 868.683 827.802 793.350 750.173 713.611 679.543 649.933 649.040 663.451 716.591 783.184 846.624 922.683 1005.299 1048.684 979.702 921.671 936.616 997.534 1058.211 1031.882 924.742 833.253 820.003 885.128 1002.771 1108.665 1134.049 1096.781 1053.820 1058.618 1080.319 1090.534 1149.085 1294.744 -9999.000 -9999.000 -9999.000 -9999.000 -9999.000 -9999.000 -9999.000 -9999.000 -9999.000 -9999.000 -9999.000 -9999.000 -9999.000 -9999.000 -9999.000 -9999.000 -9999.000 -9999.000 -9999.000 -9999.000 -9999.000 -9999.000 -9999.000 -9999.000 -9999.000 -9999.000 -9999.000 -9999.000 -9999.000 -9999.000 -9999.000 -9999.000 -9999.000 -9999.000 -9999.000
-9999.000 -9999.000 -9999.000 -9999.000 -9999.000 -9999.000 -9999.000 -9999.000 -9999.000 -9999.000 -9999.000 -9999.000 -9999.000 -9999.000 -9999.000 -9999.000 -9999.000 -9999.000 -9999.000 -9999.000 -9999.000 -9999.000 -9999.000 1187.833 1126.496 1067.840 1040.686 966.426 902.596 829.740 812.653 819.240 767.525 695.443 660.486 581.259 599.795 669.630 697.335 718.109 707.965 713.454 683.083 606.091 616.888 624.177 545.852 536.708 539.350 514.001 482.491 420.443 438.240 471.086 502.621 529.609 577.421 617.591 643.714 674.522 692.585 735.747 747.493 778.989 811.597 859.107 917.183 979.906 950.046 866.444 809.524 785.133 740.674 698.235 667.934 660.983 673.549 696.949 739.568 812.678 891.257 958.018 1041.260 1101.992 1035.345 985.861 1009.327 1065.283 1113.962 1052.712 941.797 847.340 887.774 917.622 951.785 1063.134 1164.041 1145.914 1126.964 1125.115 1141.085 1191.008 1173.272 1292.178 -9999.000 -9999.000 -9999.000 -9999.000 -9999.000 -9999.000 -9999.000 -9999.000 -9999.000 -9999.000 -9999.000 -9999.000 -9999.000 -9999.000 -9999.000 -9999.000 -9999.000 -9999.000 -9999.000 -9999.000 -9999.000 -9999.000 -9999.000 -9999.000 -9999.000 -9999.000 -9999.000 -9999.000 -9999.000 -9999.000 -9999.000 -9999.000 -9999.000 -9999.000 -9999.000
-9999.000 -9999.000 -9999.000 -9999.000 -9999.000 -9999.000 -9999.000 -9999.000 -9999.000 -9999.000 -9999.000 -9999.000 -9999.000 -9999.000 -9999.000 -9999.000 -9999.000 -9999.000 -9999.000 -9999.000 -9999.000 -9999.000 -9999.000 1167.543 1133.368 1096.766 1044.222 963.248 903.664 868.445 850.523 824.049 784.208 753.619 658.354 639.984 652.320 697.569 722.594 765.742 772.517 752.292 680.402 650.372 702.330 622.699 590.566 615.878 603.417 562.418 501.607 464.311 466.474 563.886 598.849 615.173 586.888 597.931 622.935 642.120 656.894 680.494 709.848 758.190 805.671 851.461 910.532 978.282 981.715 901.849 820.738 757.371 729.749 711.130 694.218 700.731 719.828 739.128 769.910 830.699 913.793 986.006 1051.169 1116.915 1093.364 1048.477 1079.923 1135.477 1126.919 1041.648 939.191 882.614 954.039 1007.773 1008.655 1046.357 1179.088 1250.301 1199.339 1153.244 1204.135 1246.126 1268.986 1304.857 -9999.000 -9999.000 -9999.000 -9999.000 -9999.000 -9999.000 -9999.000 -9999.000 -9999.000 -9999.000 -9999.000 -9999.000 -9999.000 -9999.000 -9999.000 -9999.000 -9999.000 -9999.000 -9999.000 -9999.000 -9999.000 -9999.000 -9999.000 -9999.000 -9999.000 -9999.000 -9999.000 -9999.000 -9999.000 -9999.000 -9999.000 -9999.000 -9999.000 -9999.000 -9999.000
-9999.000 -9999.000 -9999.000 -9999.000 -9999.000 -9999.000 -9999.000 -9999.000 -9999.000 -9999.000 -9999.000 -9999.000 -9999.000 -9999.000 -9999.000 -9999.000 -9999.000 -9999.000 -9999.000 -9999.000 -9999.000 -9999.000 -9999.000 1176.182 1130.609 1093.878 1066.460 973.958 972.905 946.805 896.397 860.070 804.307 728.196 692.771 710.999 709.811 731.299 788.806 842.161 840.231 790.474 767.913 768.321 761.582 634.706 655.501 679.649 636.390 577.283 521.839 478.467 457.581 598.888 683.110 678.575 672.438 662.272 663.353 672.337 699.176 710.825 712.260 736.080 797.378 846.025 907.736 976.890 1017.632 962.273 891.535 850.727 806.947 769.037 745.492 769.032 781.127 785.715 810.524 872.177 943.566 988.493 1032.565 -9999.000 1133.738 1114.744 1151.641 1210.222 1146.542 1050.052 1004.005 962.388 956.285 1034.978 1090.105 1094.815 1199.196 1327.462 1278.753 1219.627 1234.798 1319.262 1346.429 1359.226 1443.265 -9999.000 -9999.000 -9999.000 -9999.000 -9999.000 -9999.000 -9999.000 -9999.000 -9999.000 -9999.000 -9999.000 -9999.000 -9999.000 -9999.000 -9999.000 -9999.000 -9999.000 -9999.000 -9999.000 -9999.000 -9999.000 -9999.000 -9999.000 -9999.000 -9999.000 -9999.000 -9999.000 -9999.000 -9999.000 -9999.000 -9999.000 -9999.000 -9999.000 -9999.000
-9999.000 -9999.000 -9999.000 -9999.000 -9999.000 -9999.000 -9999.000 -9999.000 -9999.000 -9999.000 -9999.000 -9999.000 -9999.000 -9999.000 -9999.000 -9999.000 -9999.000 -9999.000 -9999.000 -9999.000 -9999.000 -9999.000 -9999.000 1203.227 1163.251 1149.383 1132.481 1072.569 1022.981 992.257 947.716 859.199 802.514 743.977 736.389 743.420 753.474 767.862 854.602 898.193 884.023 837.026 843.822 830.803 753.732 706.916 744.701 708.001 681.964 611.805 546.172 503.143 474.929 527.993 654.406 743.507 725.136 719.420 725.926 731.481 739.363 747.888 764.733 750.610 764.554 826.254 900.210 969.709 -9999.000 1012.821 983.900 953.468 893.879 828.888 803.630 838.767 850.719 854.771 883.448 927.505 978.971 966.869 -9999.000 -9999.000 -9999.000 1176.317 1209.001 1258.282 1180.381 1098.847 1066.536 1034.423 1037.823 1075.644 1123.410 1170.907 1249.346 1372.600 1362.666 1332.144 1300.349 1340.983 1443.792 1481.609 1486.455 -9999.000 -9999.000 -9999.000 -9999.000 -9999.000 -9999.000 -9999.000 -9999.000 -9999.000 -9999.000 -9999.000 -9999.000 -9999.000 -9999.000 -9999.000 -9999.000 -9999.000 -9999.000 -9999.000 -9999.000 -9999.000 -9999.000 -9999.000 -9999.000 -9999.000 -9999.000 -9999.000 -9999.000 -9999.000 -9999.000 -9999.000 -9999.000 -9999.000 -9999.000
